# .PCD v0.7 - Point Cloud Data file format
VERSION 0.7
FIELDS x y z rgb
SIZE 4 4 4 4
TYPE F F F U
COUNT 1 1 1 1
WIDTH 1130
HEIGHT 1
VIEWPOINT 0 0 0 1 0 0 0
POINTS 1130
DATA ascii
-898.49005 -2257.3298 31165.979 4281019176
-898.49005 -2256.8599 31195.371 4283650128
-898.48004 -2269.21 31193.561 4291805124
-898.48004 -2269.2 31181.699 4283843401
-898.48004 -2257.5701 31158.23 4282595891
-898.48004 -2257.1899 31186.262 4281411631
-898.48004 -2257.0601 31189.291 4286016110
-898.48004 -2256.9299 31192.33 4287727242
-898.48004 -2256.3401 31187.561 4282068292
-898.47003 -2269.26 31184.58 4292990682
-898.47003 -2269.1299 31183.18 4281150008
-898.47003 -2258.48 31154.488 4289307035
-898.47003 -2256.6201 31199.92 4282793278
-898.47003 -2256.0601 31188.361 4281148453
-898.46002 -2270.0601 31157.049 4282923834
-898.46002 -2269.1602 31180.67 4283383109
-898.46002 -2258.3599 31155.99 4293453023
-898.46002 -2257.54 31161.34 4282136629
-898.46002 -2257.49 31157.721 4283781214
-898.46002 -2256.96 31190.799 4287661192
-898.46002 -2256.8301 31193.838 4284570718
-898.46002 -2256.6499 31198.389 4283320388
-898.45001 -2269.3701 31182.73 4283513925
-898.45001 -2269.3301 31171.631 4290097335
-898.45001 -2257.3701 31180.18 4279964956
-898.45001 -2256.6001 31194.82 4282269248
-898.44 -2270.74 31164.27 4282989118
-898.44 -2257.4399 31167.639 4283910739
-898.44 -2257.3799 31177.592 4283712341
-898.44 -2257.3201 31170.66 4282926145
-898.42999 -2269.95 31154.99 4283449929
-898.42999 -2268.5901 31161.191 4282860629
-898.42999 -2257.49 31158.701 4283582808
-898.41992 -2270.05 31156.021 4283515457
-898.41992 -2269.3501 31167.652 4294306541
-898.41992 -2257.73 31157.48 4283122235
-898.41992 -2257.4102 31172.611 4282991955
-898.41992 -2256.0601 31186.469 4281345575
-898.41992 -2255.78 31184.531 4282200884
-898.41003 -2257.5 31156.721 4283845469
-898.41003 -2257.46 31163.66 4283515985
-898.40002 -2269.6899 31184.799 4283579972
-898.40002 -2269.1799 31198.541 4294965245
-898.40002 -2257.45 31164.652 4282529604
-898.40002 -2257.3901 31176.59 4283910488
-898.40002 -2257.1599 31181.658 4281413428
-898.39001 -2269.6101 31183.771 4283119681
-898.39001 -2269.26 31179.65 4283119935
-898.39001 -2269.1899 31196.539 4293054419
-898.39001 -2257.48 31159.689 4283318865
-898.39001 -2257.45 31165.648 4282923591
-898.39001 -2257.4399 31166.641 4283647568
-898.39001 -2257.4102 31173.6 4283517526
-898.39001 -2257.1799 31179.238 4282597184
-898.39001 -2256.77 31194.07 4282335556
-898.39001 -2256.3401 31188.541 4283386206
-898.38 -2269.26 31183.57 4286869367
-898.38 -2257.1699 31187.008 4281939787
-898.38 -2257.01 31180.25 4281938240
-898.37 -2269.21 31178.619 4283120704
-898.37 -2269.2 31195.541 4291541697
-898.37 -2257.46 31162.658 4284042844
-898.37 -2256.96 31184.68 4282663496
-898.37 -2255.75 31182.639 4282003245
-898.35999 -2269.1401 31177.592 4283316543
-898.34998 -2270.3899 31157.98 4282203465
-898.34998 -2269.3999 31157.709 4285685352
-898.34998 -2269.3101 31174.6 4292334287
-898.34003 -2269.2 31194.531 4291279807
-898.34003 -2269.1899 31197.531 4294965245
-898.34003 -2268.6101 31164.539 4283057500
-898.34003 -2258.5601 31161.881 4283320663
-898.34003 -2257.0999 31185.309 4281939787
-898.34003 -2257.02 31181.93 4281872960
-898.34003 -2256.9402 31183.139 4281807674
-898.33002 -2258.0701 31154.432 4284505433
-898.33002 -2257.3999 31174.578 4283188305
-898.33002 -2257.1301 31173.361 4281677106
-898.33002 -2256.3899 31179.559 4283581777
-898.32001 -2257.3999 31175.58 4283055692
-898.32001 -2257.05 31183.609 4281808201
-898.31 -2258.5801 31163.559 4283058261
-898.31 -2257.48 31160.668 4284636008
-898.31 -2257.3799 31178.561 4283448399
-898.29999 -2269.3198 31172.602 4287268235
-898.29999 -2269.3198 31173.6 4288583577
-898.29999 -2258.6201 31165.24 4282071367
-898.28998 -2270.3101 31156.281 4283058774
-898.28998 -2269.3599 31165.641 4290030252
-898.28998 -2269.24 31176.568 4283121475
-898.28998 -2257.6699 31171.521 4283320648
-898.28998 -2257.5 31155.709 4284305505
-898.28998 -2257.1399 31188.682 4281939787
-898.27997 -2268.52 31162.838 4282334285
-898.27997 -2268.45 31159.461 4282071367
-898.27997 -2257.51 31154.721 4283515732
-898.27997 -2257.47 31161.66 4285227118
-898.27002 -2258.6299 31166.918 4282465867
-898.27002 -2258.3599 31155.131 4282465867
-898.27002 -2256.3201 31192.512 4283845208
-898.25 -2256.3601 31185.529 4285687158
-898.23999 -2269.4099 31156.711 4284171344
-898.23999 -2258.46 31160.18 4282794576
-898.23999 -2258.26 31155.25 4284439382
-898.21997 -2269.4202 31154.721 4291340719
-898.21997 -2258.3701 31156.799 4282860882
-898.20996 -2268.3398 31173.58 4292334035
-898.20996 -2268.3398 31174.578 4291413187
-898.20996 -2256.3201 31191.51 4284042844
-898.20001 -2258.3901 31158.48 4282794576
-898.20001 -2258.3201 31156.82 4283450943
-898.20001 -2258.1599 31162.24 4283584076
-898.20001 -2256.3298 31189.512 4284898670
-898.20001 -2255.6101 31182.871 4282532415
-898.19 -2269.4099 31155.709 4288184967
-898.19 -2269.3501 31166.619 4291081656
-898.19 -2268.3501 31172.58 4292070095
-898.19 -2258.1101 31165.35 4281019176
-898.19 -2257.71 31178.57 4281742132
-898.19 -2256.3801 31180.529 4283384398
-898.19 -2255.6001 31183.66 4281874229
-898.19 -2255.1702 31182.529 4282268733
-898.17999 -2257.1101 31190.342 4282268494
-898.17999 -2255.6899 31182.111 4281741616
-898.16998 -2269.45 31175.549 4283449671
-898.16998 -2256.49 31180.898 4281807404
-898.14996 -2258.5898 31168.578 4282597966
-898.14996 -2258.46 31156.07 4283780936
-898.14996 -2255.6899 31184.461 4281741366
-898.13995 -2258.3 31163.049 4285887601
-898.13995 -2258.0798 31170.041 4282532158
-898.13995 -2257.8699 31177.82 4281282351
-898.13 -2268.97 31202.262 4282725692
-898.13 -2258.1899 31167.709 4282005301
-898.12 -2269.1201 31170.41 4283119675
-898.12 -2257.3799 31179.529 4283384398
-898.09998 -2269.0901 31169.379 4282922808
-898.09998 -2268.3301 31175.549 4290952125
-898.08997 -2269.55 31174.529 4283383365
-898.08997 -2269.48 31173.498 4283514181
-898.08997 -2269.29 31171.439 4283447615
-898.08997 -2258.5898 31170.252 4281479742
-898.08997 -2257.0901 31192.01 4282005320
-898.08997 -2256.3298 31190.49 4284305761
-898.08997 -2256.3101 31193.48 4282989386
-898.07996 -2269.02 31201.238 4282922814
-898.07996 -2258.49 31162.619 4283911260
-898.07996 -2256.96 31162.82 4286410857
-898.07996 -2256.3801 31181.51 4282727498
-898.06995 -2269.4402 31172.471 4283579202
-898.06995 -2258.48 31163.611 4283647829
-898.06995 -2257.4399 31175.76 4282199342
-898.06006 -2258.47 31164.6 4282792777
-898.05005 -2268.4099 31161.639 4288714131
-898.05005 -2258.6099 31171.93 4282531407
-898.04004 -2268.3901 31165.602 4291737276
-898.04004 -2256.3 31196.469 4283583065
-898.02997 -2270.0898 31154.52 4283387739
-898.02997 -2269.0601 31200.211 4282988862
-898.02997 -2268.3599 31171.57 4293518060
-898.01996 -2269.1899 31168.35 4283449153
-898.01996 -2268.8298 31164.23 4282529592
-898.01996 -2258.47 31165.592 4282529602
-898.00995 -2268.4099 31160.641 4293056729
-898.00995 -2268.3799 31166.59 4290948786
-898.00995 -2258.6001 31163.889 4286085751
-897.99994 -2258.46 31167.568 4283583058
-897.99994 -2258.25 31177.121 4281807668
-897.99005 -2258.46 31166.58 4283581775
-897.99005 -2257.3601 31182.488 4283583061
-897.98004 -2269.0801 31199.191 4282726971
-897.98004 -2269.01 31165.271 4282660408
-897.98004 -2268.6199 31194.049 4283317825
-897.98004 -2268.53 31193.021 4283580997
-897.98004 -2258.6001 31173.6 4282531148
-897.98004 -2255.4299 31183.75 4281675825
-897.97003 -2257.3701 31180.5 4283450191
-897.97003 -2257.3701 31181.5 4283187789
-897.96002 -2269.04 31198.16 4282529592
-897.96002 -2268.96 31197.131 4282332726
-897.96002 -2268.77 31195.08 4282989116
-897.96002 -2268.71 31161.139 4282857535
-897.96002 -2268.3301 31176.529 4290031280
-897.96002 -2258.47 31172.461 4283320137
-897.95007 -2269.29 31167.33 4282660149
-897.95007 -2268.9199 31163.211 4282529596
-897.95007 -2268.8801 31196.109 4281411624
-897.95007 -2268.3201 31177.521 4285556844
-897.95007 -2258.72 31164.701 4283191115
-897.95007 -2258.49 31161.609 4283779673
-897.95007 -2258.45 31168.561 4282729288
-897.93994 -2268.3999 31162.609 4288779922
-897.92993 -2268.5601 31191.988 4283383107
-897.92993 -2268.3799 31167.582 4288054921
-897.92993 -2257.02 31193.662 4281873990
-897.92004 -2269.26 31166.309 4282462259
-897.92004 -2268.8999 31162.18 4282792510
-897.92004 -2268.72 31160.111 4282660154
-897.92004 -2268.3701 31168.57 4288121743
-897.92004 -2268.3599 31170.551 4294900478
-897.92004 -2257.4399 31179.189 4281741356
-897.92004 -2256.28 31200.449 4283517013
-897.92004 -2256.27 31201.449 4282069822
-897.91003 -2268.45 31154.67 4291011497
-897.91003 -2268.3701 31169.559 4289043871
-897.91003 -2268.1602 31157.682 4282071879
-897.90002 -2268.4399 31155.66 4290683302
-897.90002 -2258.6201 31173.279 4282333501
-897.89001 -2270.1201 31159.549 4281084985
-897.89001 -2268.3901 31164.59 4288910489
-897.89001 -2258.5698 31175.26 4282530633
-897.89001 -2258.53 31154.66 4283515731
-897.89001 -2257.3401 31187.461 4283055187
-897.89001 -2257.3298 31188.461 4284174180
-897.88 -2268.6001 31190.971 4282922813
-897.88 -2258.77 31169.4 4281479471
-897.88 -2258 31165.258 4281805872
-897.88 -2257.3601 31183.469 4285227886
-897.88 -2257.03 31195.34 4281873731
-897.88 -2256.3801 31182.48 4282859084
-897.87 -2268.3201 31178.5 4287595910
-897.87 -2258.6499 31174.068 4282530623
-897.87 -2257.0601 31197.031 4282070854
-897.85999 -2268.4199 31159.619 4293253853
-897.85004 -2268.3999 31163.59 4290423474
-897.85004 -2256.3101 31195.441 4282595915
-897.85004 -2256.3 31197.439 4283780699
-897.84003 -2268.8201 31159.092 4282725947
-897.84003 -2268.6199 31189.941 4283580996
-897.84003 -2268.03 31154.291 4280953397
-897.84003 -2258.71 31174.859 4282532158
-897.84003 -2258.53 31155.641 4283977823
-897.84003 -2257.3298 31189.449 4284701547
-897.84003 -2256.3699 31184.461 4285095786
-897.84003 -2256.3101 31194.439 4282134336
-897.83002 -2268.5498 31188.91 4283580994
-897.83002 -2268.4299 31158.631 4287397255
-897.83002 -2268.2 31200.439 4289303450
-897.83002 -2258.52 31156.631 4283978336
-897.83002 -2258.45 31169.541 4282598472
-897.82001 -2268.6001 31156 4282595134
-897.82001 -2268.4299 31157.639 4283316035
-897.82001 -2268.0598 31155.969 4281874500
-897.82001 -2258.72 31176.432 4282334012
-897.82001 -2258.4399 31171.521 4282860370
-897.82001 -2257.3499 31184.461 4287530127
-897.81 -2270.1401 31162.908 4280492083
-897.81 -2268.4399 31156.641 4285553512
-897.81 -2268.3201 31185.818 4282658866
-897.81 -2258.52 31157.621 4283450967
-897.81 -2257.3499 31185.449 4288582558
-897.79999 -2268.75 31157.031 4282331448
-897.79999 -2268.53 31187.881 4283974983
-897.79999 -2268.2 31201.441 4289171091
-897.79999 -2257.3401 31186.449 4285095535
-897.78998 -2268.8699 31158.068 4282265142
-897.78998 -2268.5901 31154.971 4283384392
-897.78998 -2268.21 31199.438 4294105821
-897.78998 -2259.01 31168.662 4281084199
-897.78998 -2258.45 31170.52 4282994256
-897.78003 -2268.5 31186.859 4284040519
-897.78003 -2268.3 31184.799 4282921534
-897.78003 -2268.29 31183.469 4285158496
-897.78003 -2258.8401 31175.672 4282729026
-897.78003 -2258.54 31176.92 4282332998
-897.78003 -2256.29 31199.42 4284043871
-897.77002 -2268.3101 31180.48 4294897911
-897.77002 -2268.3 31181.469 4289764516
-897.77002 -2268.26 31189.449 4284238420
-897.77002 -2257.3201 31190.43 4284306788
-897.77002 -2257.03 31198.699 4282136647
-897.76001 -2258.5698 31178.602 4282530120
-897.76001 -2257.04 31186.648 4286542444
-897.73999 -2268.3201 31179.48 4290621108
-897.73999 -2256.3699 31183.451 4283517011
-897.72998 -2268.3 31182.459 4283381571
-897.72998 -2268.24 31193.43 4289636779
-897.72998 -2256.8301 31181.57 4279175689
-897.71997 -2268.27 31188.439 4286805117
-897.71997 -2268.24 31194.43 4287266691
-897.71997 -2260.6501 31164.02 4283582792
-897.71997 -2258.21 31177.451 4281807407
-897.71002 -2259.9199 31156.859 4282663503
-897.71002 -2258.5698 31180.279 4282004802
-897.71002 -2258.51 31158.6 4283187794
-897.70001 -2260.54 31165.521 4284569172
-897.70001 -2260.4099 31168.549 4293451740
-897.70001 -2258.4399 31172.5 4283057749
-897.69 -2268.23 31195.42 4288516501
-897.69 -2260.6199 31162.49 4290162348
-897.69 -2257.3098 31193.412 4283515471
-897.67999 -2268.48 31183.779 4283119424
-897.67999 -2268.01 31178.629 4283317566
-897.67999 -2260.8 31157.949 4289570723
-897.67999 -2259.8601 31155.17 4282795089
-897.67999 -2259.6201 31186.719 4287003523
-897.67999 -2257.01 31200.369 4282136647
-897.66998 -2260.8101 31156.43 4293451740
-897.66998 -2258.4299 31173.49 4283582806
-897.66998 -2258.4299 31174.48 4283384657
-897.65997 -2268.29 31184.439 4287527044
-897.65997 -2268.27 31187.43 4290950333
-897.65997 -2260.3701 31167.01 4294899187
-897.65997 -2260.2197 31170.029 4288580495
-897.64001 -2268.25 31192.42 4294768376
-897.64001 -2268.22 31179.66 4283580996
-897.64001 -2258.6799 31187.021 4282334289
-897.64001 -2258.0701 31174.689 4281151017
-897.64001 -2256.6099 31178.359 4285422933
-897.63 -2260.5901 31159.43 4288582802
-897.63 -2259.9001 31158.52 4282860623
-897.62 -2268.5498 31182.752 4283119420
-897.62 -2268.46 31181.721 4284369743
-897.62 -2268.0901 31177.6 4283053885
-897.62 -2260.51 31160.941 4288121224
-897.62 -2259.3999 31188.199 4285424488
-897.62 -2258.4199 31175.471 4284174173
-897.62 -2256.29 31198.4 4283846492
-897.60999 -2259.6702 31180.609 4282728774
-897.60999 -2259.49 31185.16 4288253848
-897.60999 -2258.6201 31185.32 4282597717
-897.60999 -2257.3 31194.4 4283055438
-897.59998 -2268.4099 31180.701 4284303948
-897.59998 -2268.3201 31164.041 4287529862
-897.59998 -2259.5898 31182.119 4285558388
-897.59998 -2259.21 31191.229 4284437846
-897.59998 -2258.5 31160.57 4283582296
-897.59998 -2257.3098 31192.4 4283845208
-897.58997 -2269.95 31161.16 4281676098
-897.58997 -2259.8601 31174.539 4285097056
-897.58997 -2258.9399 31197.299 4283782485
-897.58997 -2257.3201 31191.4 4283912285
-897.58997 -2256.98 31202.029 4281939524
-897.57996 -2267.4399 31167.52 4283382078
-897.57996 -2260.6301 31154.871 4289373085
-897.57996 -2259.8899 31173.01 4288645777
-897.57996 -2259.21 31189.691 4285161058
-897.57996 -2255.8398 31189.709 4281675314
-897.57007 -2259.9001 31160.189 4282663246
-897.57007 -2258.95 31195.762 4283651412
-897.57007 -2258.6799 31175.66 4281873713
-897.57007 -2256.79 31197.281 4282795081
-897.56 -2267.4299 31168.51 4283120446
-897.56 -2259.98 31163.559 4282005317
-897.56 -2259.9399 31161.871 4282663247
-897.56 -2259.9099 31171.49 4287198585
-897.56 -2259.73 31176.041 4285030237
-897.56 -2259.3999 31183.609 4284900202
-897.56 -2259.04 31192.719 4283715408
-897.56 -2258.6699 31188.689 4282202701
-897.54999 -2268.1699 31176.58 4283054653
-897.54999 -2268 31174.521 4283382338
-897.54999 -2267.51 31169.359 4280685333
-897.54999 -2267.4399 31168.328 4282001704
-897.53998 -2268.28 31186.42 4293451232
-897.53998 -2268.26 31190.412 4283581005
-897.53998 -2268.24 31162.5 4288121489
-897.53998 -2268.1001 31175.549 4283186751
-897.53998 -2259.53 31157.58 4283648088
-897.53998 -2258.3999 31179.439 4282726465
-897.52997 -2268.22 31198.389 4290685356
-897.52997 -2267.3799 31177.451 4285622381
-897.52997 -2259.52 31179.049 4289373350
-897.52997 -2258.8899 31194.221 4282860356
-897.52997 -2257.74 31187.701 4288450952
-897.51996 -2267.97 31173.49 4283447360
-897.51996 -2259.54 31156.588 4284372324
-897.51996 -2258.6799 31190.369 4282465616
-897.51996 -2258.3999 31180.43 4283187017
-897.51996 -2258.3599 31186.402 4284832619
-897.51996 -2256.8999 31198.09 4282137151
-897.50995 -2259.54 31177.521 4294833655
-897.50995 -2258.48 31181.922 4281478465
-897.50995 -2257.6099 31185.629 4288845199
-897.50995 -2257.29 31196.381 4283714133
-897.50006 -2266.3 31170.902 4282136647
-897.50006 -2258.6399 31198.762 4283715921
-897.50006 -2258.51 31159.561 4283648087
-897.50006 -2257.3 31195.379 4283187791
-897.50006 -2257.0601 31179.418 4286935659
-897.49005 -2267.78 31170.4 4282988344
-897.49005 -2267.47 31160.559 4292858839
-897.49005 -2259.9702 31165.23 4280952885
-897.49005 -2258.4102 31178.43 4283055430
-897.47998 -2267.97 31172.461 4283776323
-897.47998 -2267.52 31167.301 4282923065
-897.47998 -2267.4399 31166.51 4287132023
-897.47998 -2259.53 31158.57 4283581526
-897.47998 -2258.8601 31173.811 4281938739
-897.47998 -2258.4199 31176.441 4285422959
-897.47998 -2258.3901 31181.422 4283187789
-897.47998 -2255.6499 31201.48 4281544496
-897.46997 -2268.29 31185.41 4294965499
-897.46997 -2258.49 31183.6 4281939272
-897.45996 -2257.29 31197.369 4283912285
-897.44995 -2267.47 31161.551 4291082682
-897.43994 -2267.98 31171.439 4283776321
-897.43994 -2267.3799 31178.43 4285688174
-897.43994 -2266.3 31172.57 4282465355
-897.43994 -2259.9702 31166.9 4281939781
-897.43994 -2258.6599 31192.041 4282005320
-897.43994 -2258.3599 31187.391 4283779676
-897.43005 -2267.8101 31165.461 4287201157
-897.43005 -2267.3901 31176.441 4286740605
-897.43005 -2260.01 31168.578 4283716192
-897.41003 -2258.8201 31163.949 4287135349
-897.41003 -2258.3701 31185.391 4286938506
-897.40002 -2268.1401 31202.289 4282855993
-897.40002 -2268.03 31201.26 4282922815
-897.40002 -2258.3401 31191.369 4283451220
-897.39001 -2259.52 31159.539 4283844956
-897.39001 -2258.27 31200.201 4283187781
-897.37994 -2267.98 31200.229 4283120701
-897.37994 -2259.0701 31171.961 4281544745
-897.37994 -2258.7 31195.41 4281939783
-897.37994 -2258.4102 31177.42 4284304222
-897.36993 -2268.25 31191.379 4294965759
-897.36993 -2259.5 31163.51 4283188820
-897.36993 -2257.8601 31184.609 4291015854
-897.36005 -2267.73 31166.291 4283186750
-897.36005 -2266.8801 31199.641 4282729047
-897.35004 -2267.99 31199.201 4283383616
-897.35004 -2266.6299 31189.471 4282794583
-897.35004 -2266.5898 31187.77 4282925911
-897.35004 -2259.54 31155.57 4284240482
-897.35004 -2258.72 31197.102 4282005322
-897.34003 -2268.23 31196.359 4291213500
-897.34003 -2260.25 31182.059 4282202440
-897.34003 -2258.6399 31193.711 4281939783
-897.34003 -2257.8601 31183.578 4292067772
-897.34003 -2257.29 31177.359 4287991422
-897.3299 -2267.48 31159.549 4289240484
-897.3299 -2267.3599 31181.4 4283710794
-897.3299 -2266.8899 31201.33 4282334546
-897.3299 -2266.8101 31197.939 4282794840
-897.3299 -2260.21 31180.371 4282530890
-897.3299 -2259.98 31170.238 4282729809
-897.3299 -2259.52 31160.529 4283319381
-897.3299 -2258.3301 31192.361 4283581004
-897.32001 -2267.45 31165.5 4289303450
-897.32001 -2266.6499 31191.15 4282531407
-897.32001 -2259.51 31162.51 4283582808
-897.32001 -2259.5 31164.49 4283123027
-897.32001 -2258.04 31201.682 4282200373
-897.32001 -2257.29 31198.35 4284504163
-897.31 -2258.3599 31188.369 4283976800
-897.31 -2258.3101 31196.35 4283779924
-897.29993 -2267.3701 31180.398 4289700007
-897.29993 -2266.48 31184.369 4283189337
-897.29993 -2260.27 31183.74 4282596946
-897.29993 -2259.51 31161.52 4283122259
-897.29993 -2259.1802 31165 4286214761
-897.29004 -2267.3999 31175.43 4290030510
-897.29004 -2266.51 31186.059 4282925911
-897.29004 -2266 31164.09 4283123291
-897.28003 -2267.5698 31162.17 4282002480
-897.28003 -2267.4102 31173.441 4291082943
-897.28003 -2258.3501 31190.35 4283978079
-897.27002 -2267.3999 31174.43 4290754231
-897.27002 -2259.3599 31170.129 4280294678
-897.27002 -2258.3901 31182.379 4283187791
-897.27002 -2258.3201 31195.34 4283516237
-897.27002 -2258.3101 31197.34 4283977561
-897.26001 -2267.8899 31165.271 4283187008
-897.26001 -2267.3701 31179.4 4287860367
-897.26001 -2267.1802 31169.91 4294901498
-897.25 -2267.96 31196.121 4282135091
-897.25 -2267.55 31161.139 4282462259
-897.25 -2260.3999 31158.529 4283647829
-897.25 -2260.1101 31178.658 4282860111
-897.25 -2259.47 31169.449 4282926924
-897.23999 -2267.7703 31163.211 4282201395
-897.23999 -2265.9299 31162.391 4283057497
-897.23999 -2260.3999 31157.541 4284371810
-897.23999 -2259.96 31171.908 4283058262
-897.23999 -2259.3999 31182.379 4283122512
-897.23999 -2259.3999 31183.371 4284833130
-897.23999 -2257.76 31191.988 4284045665
-897.22998 -2267.9199 31195.1 4282002992
-897.22998 -2267.46 31162.51 4292923860
-897.22998 -2267.02 31171.41 4294111208
-897.22998 -2260.26 31185.418 4282991704
-897.22998 -2259.48 31168.451 4283650646
-897.22003 -2268.23 31198.182 4282529849
-897.22003 -2268.22 31197.34 4291014580
-897.22003 -2267.51 31154.568 4294565864
-897.22003 -2260.3901 31159.521 4282990159
-897.21002 -2267.95 31164.24 4282529335
-897.21002 -2267.8699 31194.07 4282068785
-897.21002 -2267.4299 31169.449 4282857276
-897.21002 -2267.4102 31160.779 4291935937
-897.21002 -2267.3201 31189.35 4282988870
-897.21002 -2266.3 31179.27 4282005065
-897.21002 -2260.3901 31160.51 4282991186
-897.21002 -2259.3701 31168.25 4282201397
-897.20001 -2267.25 31202.328 4287922052
-897.20001 -2267.1199 31166.83 4289504164
-897.20001 -2261.74 31161.98 4282860370
-897.20001 -2260.28 31187.1 4282597715
-897.20001 -2257.28 31199.32 4283582806
-897.19 -2268.22 31197.158 4282529335
-897.19 -2267.6099 31160.111 4281409826
-897.19 -2267.5 31155.561 4294895598
-897.19 -2267.5 31156.549 4292527048
-897.19 -2267.49 31158.529 4290159794
-897.19 -2267.3301 31188.352 4289304996
-897.19 -2259.3901 31184.359 4285227888
-897.19 -2257.8301 31194.369 4282006335
-897.19 -2257.6899 31199.061 4281939768
-897.17999 -2267.8699 31193.039 4283909194
-897.17999 -2267.49 31157.541 4286804352
-897.17999 -2267.26 31201.33 4288777363
-897.17999 -2266.6699 31196.201 4282531668
-897.17999 -2266.04 31169.131 4283123541
-897.17999 -2260.4099 31156.539 4284438117
-897.17999 -2259.3901 31185.348 4285819768
-897.16998 -2267.45 31164.48 4290685103
-897.16998 -2267.3599 31182.369 4284302417
-897.16998 -2266.23 31177.57 4282597200
-897.16998 -2263.6699 31155.451 4292136138
-897.16998 -2259.95 31173.58 4282794318
-897.16998 -2259.49 31165.461 4282529602
-897.16998 -2258.3301 31193.328 4283910740
-897.16998 -2257.73 31199.859 4283058760
-897.15997 -2266.47 31164.48 4289764773
-897.15997 -2266.3401 31182.639 4282729040
-897.15997 -2261.75 31163.66 4281873733
-897.15997 -2260.29 31188.779 4282268494
-897.15997 -2259.55 31154.559 4283714652
-897.15997 -2259.3799 31186.35 4284569958
-897.15997 -2258.6299 31198.74 4282070856
-897.15002 -2266.5701 31192.801 4281413183
-897.15002 -2266.46 31165.469 4287065462
-897.15002 -2265.95 31165.74 4282925913
-897.15002 -2261.6599 31160.281 4282926162
-897.15002 -2259.4102 31181.369 4282990156
-897.15002 -2259.3799 31187.342 4283055951
-897.15002 -2258.3501 31189.34 4283648089
-897.14001 -2267.6599 31159.092 4281409574
-897.14001 -2267.4102 31172.422 4288582812
-897.14001 -2265.8301 31160.682 4282991958
-897.14001 -2260.3799 31161.49 4282859858
-897.13 -2267.6399 31188.932 4283909960
-897.13 -2266.4302 31171.42 4282726205
-897.13 -2263.5 31156.939 4290161836
-897.13 -2263.24 31162.992 4286477431
-897.13 -2260 31176.941 4282794318
-897.13 -2259.46 31172.408 4283583579
-897.13 -2258.3301 31194.32 4283121481
-897.12 -2266.8501 31168.301 4294702581
-897.12 -2260.4199 31155.539 4285425781
-897.12 -2259.3701 31188.33 4282925389
-897.12 -2258.3 31198.309 4283517013
-897.12 -2257.98 31195.191 4282664265
-897.12 -2257.8198 31200.672 4283321931
-897.10999 -2267.78 31189.959 4283185981
-897.10999 -2266.1199 31174.18 4282136649
-897.10999 -2263.1201 31164.48 4282661176
-897.10999 -2261.9102 31172.07 4283058262
-897.10999 -2261.8298 31168.701 4287531928
-897.09998 -2267.46 31163.48 4294897650
-897.09998 -2267.3501 31183.359 4289303711
-897.09998 -2267.05 31181.721 4282922293
-897.09998 -2261.8601 31170.379 4284637293
-897.09998 -2260.3701 31164.459 4282596681
-897.09998 -2260.29 31190.461 4282531666
-897.09998 -2259.6301 31166.422 4281873713
-897.08997 -2267.3301 31187.342 4290555831
-897.08997 -2267.27 31198.309 4287199610
-897.08997 -2266.3501 31187.342 4292002764
-897.08997 -2266.1699 31183.469 4294966783
-897.08997 -2265.75 31158.98 4282597967
-897.08997 -2261.51 31155.219 4283913570
-897.08997 -2259.9299 31175.24 4282860111
-897.08002 -2267.71 31158.061 4281738282
-897.08002 -2267.3201 31190.328 4285949296
-897.08002 -2267.28 31197.311 4290423726
-897.08002 -2266.4302 31172.408 4283384899
-897.08002 -2266.25 31180.93 4282530896
-897.08002 -2266.0701 31184.992 4294966271
-897.08002 -2263.1702 31161.441 4290883760
-897.08002 -2260.3701 31163.471 4282663246
-897.08002 -2259.48 31167.441 4283189069
-897.08002 -2259.45 31173.4 4283582806
-897.07001 -2267.7 31187.9 4283843653
-897.07001 -2263.5798 31157.09 4283058261
-897.07001 -2263.53 31155.41 4283716191
-897.07001 -2262.8301 31169 4294901241
-897.07001 -2262.6399 31173.551 4291807425
-897.07001 -2259.47 31170.41 4283847767
-897.07001 -2258.3799 31185.83 4281807416
-897.07001 -2257.28 31200.299 4282728265
-897.06 -2268.0798 31192.02 4284040779
-897.06 -2267.3501 31184.352 4287988364
-897.06 -2267.3101 31192.318 4290358713
-897.06 -2266.3501 31186.34 4294965503
-897.06 -2265.95 31186.49 4291609285
-897.06 -2263.6899 31162.141 4282991958
-897.06 -2262.6802 31172.031 4294962418
-897.06 -2260.3799 31162.469 4283123541
-897.04999 -2267.7 31157.041 4282068275
-897.04999 -2267.3 31193.32 4291807950
-897.04999 -2265.4399 31171.41 4282001969
-897.04999 -2262.71 31170.512 4293190106
-897.04999 -2262.1001 31185.682 4294964733
-897.04999 -2261.5601 31158.57 4283123541
-897.04999 -2261.52 31156.891 4283123795
-897.04999 -2260.3398 31169.422 4284636513
-897.04999 -2259.49 31166.439 4283385679
-897.04999 -2259.4102 31180.35 4283713620
-897.04999 -2259.3701 31189.318 4283582804
-897.04999 -2258.3799 31184.342 4287662481
-897.03998 -2267.6299 31156 4282790716
-897.03998 -2267.26 31200.311 4289237144
-897.03998 -2266.47 31163.471 4290621110
-897.03998 -2265.6099 31194.088 4288715676
-897.03998 -2262.8901 31165.961 4283319108
-897.03998 -2261.8999 31173.748 4282729297
-897.02997 -2268.0798 31191 4283448898
-897.02997 -2267.5698 31154.971 4282792512
-897.02997 -2266.3401 31188.33 4285817710
-897.02997 -2263.8201 31168.881 4286084482
-897.02997 -2262.78 31167.471 4294899957
-897.02997 -2262.1201 31184.148 4294306290
-897.02997 -2261.98 31187.18 4290029996
-897.02997 -2259.46 31171.398 4282597184
-897.01996 -2267.73 31186.881 4284172360
-897.01996 -2267.3501 31182.76 4282526769
-897.01996 -2267.1699 31180.701 4283448637
-897.01996 -2266.8101 31176.568 4282594099
-897.01996 -2266.53 31194.461 4282136906
-897.01996 -2266.3901 31179.361 4286084469
-897.01001 -2267.3401 31186.332 4290688183
-897.01001 -2266.9099 31177.6 4283185467
-897.01001 -2266.74 31175.541 4282594869
-897.01001 -2265.4302 31172.4 4282264885
-897.01001 -2263.6899 31163.822 4282531153
-897 -2267.3401 31185.33 4289303454
-897 -2267.3101 31191.309 4291082435
-897 -2266.3601 31185.33 4294568179
-897 -2266.0801 31175.84 4282202442
-897 -2263.0898 31158.371 4288581776
-896.98999 -2265.4399 31170.41 4284896089
-896.98999 -2263.76 31167.182 4285361016
-896.98999 -2259.3501 31160.709 4280557597
-896.97998 -2267.4199 31171.398 4288845984
-896.97998 -2267.27 31199.289 4290488489
-896.97998 -2266.3799 31180.35 4283517518
-896.97998 -2266.3601 31184.33 4292790740
-896.97998 -2265.49 31192.529 4290359989
-896.97998 -2262.3401 31175.01 4288781202
-896.97998 -2261.79 31188.668 4286279537
-896.97998 -2259.3599 31190.311 4283583065
-896.97998 -2258.1699 31201.541 4282663229
-896.96997 -2266.46 31166.43 4285552993
-896.96997 -2266.1899 31168.32 4280291087
-896.96997 -2265.8701 31167.389 4283320663
-896.96997 -2262.9399 31159.859 4290095527
-896.96997 -2262.1899 31178.039 4294965494
-896.96997 -2261.6599 31165.289 4282531407
-896.96997 -2260.24 31192.111 4282136906
-896.96997 -2258.3901 31183.332 4286740866
-896.95996 -2267.8 31185.85 4283316289
-896.95996 -2267.3 31194.299 4294834428
-896.95996 -2267.29 31196.289 4294964986
-896.95996 -2266.3401 31189.311 4286410106
-896.95996 -2263.6899 31165.49 4283517793
-896.95996 -2263.5798 31160.432 4282926163
-896.95996 -2261.6899 31166.98 4284439406
-896.95996 -2261.3799 31173.379 4283910991
-896.95996 -2259.4299 31177.35 4284041555
-896.94995 -2266.48 31162.461 4290952127
-896.94995 -2261.6599 31190.17 4286806137
-896.94995 -2261.5801 31191.689 4286082414
-896.94995 -2261.4402 31162.461 4282202691
-896.94995 -2260.4199 31154.529 4284636010
-896.94995 -2260.1401 31164.631 4281083427
-896.94006 -2267.4199 31170.4 4294503923
-896.94006 -2266.8201 31174.521 4280423441
-896.94006 -2261.9302 31182.572 4294900223
-896.94006 -2261.4299 31163.449 4282992466
-896.94006 -2261.3899 31172.379 4285883754
-896.94006 -2260.25 31186.311 4284701801
-896.94006 -2258.8 31182.58 4292725189
-896.94006 -2258.52 31200.381 4281939526
-896.93005 -2267.29 31195.291 4294570227
-896.93005 -2267.21 31178.641 4283645764
-896.93005 -2265.79 31181.852 4294966783
-896.93005 -2259.9199 31162.701 4280624159
-896.93005 -2258.51 31193.729 4281480762
-896.92004 -2265.4302 31173.379 4282069038
-896.92004 -2263.78 31170.541 4284176486
-896.92004 -2262.0898 31185.541 4282925911
-896.92004 -2259.4299 31158.85 4281807407
-896.92004 -2258.55 31192.951 4284375402
-896.92004 -2257.28 31201.279 4282530629
-896.90997 -2266.3301 31190.301 4285884021
-896.90997 -2266.29 31198.279 4289371035
-896.90997 -2264.29 31192.52 4283189597
-896.90997 -2264.1301 31185.752 4283386206
-896.90997 -2263.5 31158.73 4282794576
-896.90997 -2262.1001 31176.488 4286016618
-896.90997 -2262.04 31183.85 4283847267
-896.90997 -2260.3398 31170.389 4284438876
-896.90997 -2260.28 31181.33 4282661963
-896.90997 -2260.27 31182.32 4281543483
-896.90997 -2260.27 31183.318 4282596168
-896.90997 -2260.24 31193.789 4282334287
-896.89996 -2267.75 31183.801 4283316287
-896.89996 -2266.6499 31159.078 4288778642
-896.89996 -2266.28 31167.301 4281015321
-896.89996 -2265.8301 31178.791 4289898919
-896.89996 -2261.95 31179.51 4294966783
-896.89996 -2261.4299 31164.43 4282795341
-896.89996 -2261.3899 31193.18 4284635485
-896.89996 -2260.3599 31165.42 4281741113
-896.89996 -2259.4199 31179.33 4283844947
-896.89996 -2259.3599 31191.291 4282332996
-896.89996 -2258.3 31199.271 4282925389
-896.88995 -2266.6001 31202.289 4282724407
-896.88995 -2266.28 31199.279 4288119942
-896.88995 -2264.04 31182.361 4285031282
-896.88995 -2260.3 31178.338 4283449938
-896.87994 -2267.9001 31184.83 4282987835
-896.87994 -2267.4399 31179.682 4283382842
-896.87994 -2266.45 31167.41 4284171081
-896.87994 -2266.4199 31173.371 4283384901
-896.87994 -2266.3301 31191.291 4283055179
-896.87994 -2266.03 31172.711 4289768870
-896.87994 -2265.8599 31177.27 4285029719
-896.87994 -2264.0698 31184.051 4284768369
-896.87994 -2261.8298 31175.391 4282926165
-896.87994 -2260.74 31170.23 4286409834
-896.87994 -2260.26 31185.309 4283912285
-896.87006 -2266.9001 31173.49 4282131241
-896.87006 -2266.3799 31181.33 4283384392
-896.87006 -2265.3901 31187.9 4286806392
-896.87006 -2265.0801 31195.498 4285295211
-896.87006 -2261.8601 31177.082 4282662476
-896.87006 -2260.26 31184.311 4282069824
-896.87006 -2260.25 31187.299 4282793545
-896.87006 -2259.4299 31178.338 4284041556
-896.87006 -2258.5601 31196.898 4282467399
-896.86005 -2266.3701 31183.318 4287528584
-896.86005 -2266.29 31197.281 4291081399
-896.86005 -2266.2 31165.24 4281279523
-896.86005 -2260.3201 31174.359 4283450450
-896.85004 -2266.3999 31178.338 4286806651
-896.85004 -2261.2 31194.668 4284637794
-896.85004 -2260.29 31180.318 4284042844
-896.85004 -2258.5 31202.051 4281873731
-896.84003 -2266.6499 31201.27 4282988601
-896.84003 -2266.49 31161.449 4294306541
-896.84003 -2266.3301 31166.27 4280490261
-896.84003 -2263.8501 31175.59 4282729042
-896.84003 -2260.96 31171.271 4286808951
-896.84003 -2260.24 31188.291 4284240735
-896.82996 -2266.9202 31172.471 4282920242
-896.82996 -2266.6499 31169.369 4280225294
-896.82996 -2266.28 31200.27 4288580493
-896.82996 -2266.1699 31164.209 4281938474
-896.82996 -2263.96 31180.648 4283584092
-896.82996 -2262.0701 31187.211 4282860118
-896.82996 -2260.5 31166.102 4286281066
-896.82996 -2260.24 31189.279 4285885559
-896.81995 -2264.1101 31187.42 4282991704
-896.81995 -2261.45 31161.449 4282596681
-896.81995 -2260.3501 31168.391 4288714652
-896.81995 -2260.2197 31195.459 4282729045
-896.80994 -2266.3799 31182.309 4282989637
-896.80994 -2265.1101 31190.9 4290885816
-896.80994 -2263.79 31173.889 4282991958
-896.80994 -2261.6501 31180.969 4292992480
-896.80994 -2260.29 31179.32 4283581777
-896.80994 -2257.8101 31200.141 4284042056
-896.80994 -2257.27 31202.262 4284767592
-896.80005 -2262.47 31169.379 4286805882
-896.80005 -2262.46 31170.371 4284436821
-896.79004 -2266.3201 31192.27 4281279281
-896.79004 -2265.6699 31175.689 4286806644
-896.79004 -2265.48 31180.24 4293714916
-896.79004 -2264.1702 31190.789 4283584608
-896.79004 -2261.3899 31171.371 4285621610
-896.79004 -2261.3799 31174.35 4283121221
-896.79004 -2260.98 31196.148 4284505695
-896.79004 -2259.01 31180.529 4286671973
-896.78003 -2265.5 31159.461 4282925636
-896.78003 -2264.24 31194.18 4282794838
-896.78003 -2263.73 31172.189 4283189848
-896.78003 -2261.48 31154.502 4285883505
-896.78003 -2260.3 31177.328 4284765030
-896.78003 -2258.6699 31176.379 4288978319
-896.77002 -2266.25 31163.18 4281411109
-896.77002 -2263.5 31163.418 4286018937
-896.77002 -2262.55 31154.502 4287528074
-896.76001 -2266.77 31200.24 4282988601
-896.76001 -2264.73 31196.961 4284505695
-896.76001 -2264.4502 31167.389 4289697952
-896.76001 -2263.8301 31177.25 4282202188
-896.76001 -2262.54 31155.49 4287725453
-896.76001 -2260.3201 31173.35 4283910991
-896.76001 -2260.23 31190.271 4285030507
-896.76001 -2259.3501 31192.262 4282791744
-896.75 -2267.03 31171.439 4281211676
-896.75 -2266.4399 31170.371 4287330947
-896.75 -2262.54 31156.479 4288448919
-896.75 -2262.47 31168.381 4290291628
-896.75 -2261.48 31155.49 4285359217
-896.73999 -2266.1599 31193.029 4280949533
-896.73999 -2262.46 31171.359 4285949034
-896.73016 -2266.6599 31198.189 4284568403
-896.73016 -2266.49 31160.449 4292333521
-896.73016 -2266.4102 31176.33 4287530378
-896.73016 -2265.9202 31189.941 4280883225
-896.73016 -2265.8301 31188.91 4280883224
-896.73016 -2264.95 31189.332 4288582548
-896.73016 -2263.8599 31178.939 4282530898
-896.73016 -2258.3 31200.24 4282860105
-896.72003 -2265.76 31187.881 4282857526
-896.72003 -2265.6699 31186.85 4281475619
-896.72003 -2261.8 31178.729 4282596683
-896.72003 -2259.9399 31188.809 4289897374
-896.71002 -2266.3401 31194.07 4282923067
-896.71002 -2266.1599 31192.01 4280290833
-896.71002 -2265.3298 31192.262 4281344820
-896.71002 -2263.51 31162.42 4283058510
-896.71002 -2263.3801 31185.281 4286082427
-896.71002 -2262.5 31162.42 4282926927
-896.70001 -2266.45 31168.381 4282527025
-896.70001 -2266.3999 31177.32 4286148210
-896.70001 -2266.3301 31162.162 4281082143
-896.70001 -2266.27 31201.238 4288908949
-896.70001 -2266.0801 31190.979 4280291601
-896.70001 -2265.45 31157.199 4282268745
-896.70001 -2264.4399 31169.369 4288908947
-896.70001 -2262.1001 31192.248 4283584610
-896.70001 -2261.4299 31165.398 4281938490
-896.70001 -2261.1299 31169.221 4285883743
-896.70001 -2260.6702 31197.611 4284439645
-896.70001 -2260.5498 31200.65 4282860099
-896.70001 -2260.3101 31175.33 4287200397
-896.70001 -2260.23 31191.26 4283913560
-896.70001 -2259.45 31174.328 4283318864
-896.69 -2266.8401 31199.219 4283317823
-896.69 -2266.6599 31197.158 4284437331
-896.69 -2265.6499 31185.818 4281080861
-896.69 -2265.45 31174.109 4290557357
-896.69 -2264.46 31166.391 4291803327
-896.69 -2264.4502 31168.381 4289302935
-896.69 -2263.5 31164.4 4287661710
-896.69 -2263.3899 31184.281 4284306015
-896.69 -2263.3801 31186.27 4284437345
-896.69 -2262.48 31167.379 4291805126
-896.69 -2262.45 31172.34 4288581524
-896.69 -2261.4402 31172.33 4286084461
-896.69 -2261.4001 31170.361 4285029728
-896.69 -2260.5901 31199.131 4283057222
-896.67999 -2267.1399 31170.42 4280948248
-896.67999 -2264.4399 31198.42 4284307032
-896.67999 -2264.0601 31189.068 4282991704
-896.67999 -2262.49 31165.391 4285884785
-896.67999 -2262.48 31166.391 4287857289
-896.67999 -2262.1299 31193.939 4283452511
-896.67999 -2260.3501 31157.129 4281347883
-896.66998 -2265.48 31163.41 4287531148
-896.66998 -2265.48 31164.4 4289897387
-896.66998 -2262.51 31161.42 4285228396
-896.66998 -2261.8501 31182.102 4284505451
-896.66998 -2261.4001 31169.359 4287858573
-896.66003 -2265.5 31160.439 4288056976
-896.66003 -2264.4399 31170.361 4286935159
-896.66003 -2263.3699 31187.26 4284371551
-896.66003 -2262.5 31163.41 4285690487
-896.66003 -2262.45 31173.33 4286081135
-896.66003 -2261.5999 31173.361 4286345062
-896.66003 -2259.1101 31196.23 4283190863
-896.65002 -2265.4199 31174.328 4283187520
-896.65002 -2265.3699 31155.5 4281940293
-896.65002 -2261.45 31160.432 4285952384
-896.65002 -2260.3599 31202.139 4283844426
-896.64001 -2266.3901 31161.129 4280620310
-896.64001 -2264.49 31159.439 4284438878
-896.64001 -2263.47 31168.369 4287330430
-896.64001 -2262.53 31157.459 4286937730
-896.64001 -2262.4399 31174.32 4283581774
-896.64001 -2261.98 31188.85 4282925911
-896.64001 -2261.75 31174.398 4284042308
-896.64001 -2261.1001 31167.16 4285885283
-896.64001 -2260.1699 31198.801 4281808199
-896.64001 -2260.1299 31197.109 4282005322
-896.63 -2266.3 31196.24 4294966527
-896.63 -2265.72 31184.799 4282066475
-896.63 -2265.6201 31183.771 4280685076
-896.63 -2265.53 31182.738 4280290318
-896.63 -2264.6799 31173.449 4281080853
-896.63 -2263.4299 31176.309 4283121481
-896.63 -2262.4099 31180.289 4289635500
-896.63 -2261.3599 31178.299 4283120974
-896.63 -2261.3101 31186.262 4284372577
-896.63 -2260.3398 31171.342 4284636511
-896.63 -2259.4399 31176.309 4286147452
-896.63 -2259.3201 31199.23 4282991178
-896.62 -2265.49 31162.412 4287335309
-896.62 -2265.45 31169.359 4286803057
-896.62 -2264.6201 31172.408 4283978573
-896.62 -2262.49 31164.389 4286347390
-896.62 -2261.47 31156.461 4284174684
-896.62 -2260.3301 31172.33 4284306006
-896.62 -2259.3101 31200.229 4283122764
-896.60999 -2266.4199 31174.32 4287529860
-896.60999 -2265.51 31158.451 4283320139
-896.60999 -2263.4399 31175.311 4283647568
-896.60999 -2262.4399 31175.311 4282595136
-896.60999 -2262.4001 31181.281 4291740885
-896.60999 -2261.4099 31168.359 4293517284
-896.60999 -2259.3501 31193.23 4284700255
-896.60999 -2258.2898 31201.221 4282794314
-896.59998 -2265.49 31161.42 4288914598
-896.59998 -2265.47 31165.391 4289040537
-896.59998 -2263.47 31169.352 4285027419
-896.59998 -2263.3699 31188.25 4286280058
-896.59998 -2262.5 31181.641 4283579706
-896.59998 -2262.1099 31195.621 4283123804
-896.59998 -2261.3701 31175.311 4284634470
-896.59998 -2260.1899 31200.479 4281741634
-896.59998 -2258.2898 31202.219 4284833382
-896.59003 -2264.6099 31171.391 4284633169
-896.59003 -2263.53 31158.441 4284504927
-896.59003 -2263.3601 31189.248 4291739080
-896.59003 -2262.4001 31182.27 4291478481
-896.59003 -2261.3198 31185.26 4283780699
-896.59003 -2261.3101 31187.25 4283122510
-896.58002 -2266.76 31195.111 4283976266
-896.58002 -2264.1399 31195.818 4282729045
-896.58002 -2263.51 31161.41 4285886326
-896.58002 -2263.46 31170.34 4285027160
-896.58002 -2263.4299 31177.301 4281345070
-896.58002 -2263.4099 31181.281 4285687920
-896.58002 -2261.98 31190.531 4283584610
-896.58002 -2259.8899 31175.939 4282530880
-896.57001 -2266.4102 31175.311 4290490549
-896.57001 -2265.8301 31157.369 4289175196
-896.57001 -2263.48 31167.361 4288645777
-896.57001 -2263.4001 31183.27 4286082427
-896.57001 -2262.3899 31183.27 4290293694
-896.56 -2266.9202 31196.139 4283582022
-896.56 -2266.52 31160.111 4280620310
-896.56 -2266.27 31202.219 4282860356
-896.56 -2265.9299 31154.34 4289045664
-896.56 -2265.3298 31191.242 4281344820
-896.56 -2263.4001 31182.27 4285227372
-896.56 -2262.53 31180.609 4282264102
-896.56 -2262.4202 31179.279 4284766308
-896.56 -2262.3899 31184.26 4287267729
-896.56 -2260.2197 31192.23 4284175705
-896.54999 -2266.5 31159.43 4287003523
-896.54999 -2264.49 31160.418 4286873477
-896.54999 -2262.3801 31185.25 4286740356
-896.54999 -2261.4099 31168.201 4285095766
-896.54999 -2260.3101 31176.301 4287858070
-896.53998 -2265.47 31166.369 4288381835
-896.53998 -2264.48 31161.41 4286084987
-896.53998 -2263.52 31159.42 4285098090
-896.53998 -2262.4299 31176.301 4282463037
-896.53998 -2261.46 31159.42 4282858824
-896.53998 -2259.3501 31194.221 4286739835
-896.53998 -2259.3398 31195.221 4284371804
-896.53998 -2259.3101 31201.209 4283122764
-896.52997 -2265.6799 31181.711 4281211676
-896.52997 -2265.3999 31178.289 4286148462
-896.52997 -2265.3699 31184.26 4284502364
-896.52997 -2263.4399 31174.311 4284898143
-896.52997 -2261.3501 31179.279 4284306014
-896.52997 -2260.6301 31190.9 4289308060
-896.52997 -2260.21 31195.221 4285490282
-896.52002 -2265.3999 31179.279 4289306522
-896.52002 -2264.48 31162.398 4284243296
-896.52002 -2264.1799 31199.201 4282334289
-896.52002 -2263.53 31157.439 4286081909
-896.52002 -2263.52 31160.41 4286411899
-896.52002 -2261.3301 31184.25 4283122514
-896.52002 -2260.75 31191.932 4286214767
-896.52002 -2260.21 31194.221 4287989903
-896.51001 -2266.52 31156.451 4293711325
-896.51001 -2265.3401 31189.24 4281080872
-896.51001 -2264.5 31158.43 4282464058
-896.51001 -2264.46 31165.369 4290356140
-896.51001 -2264.4299 31171.328 4282790713
-896.51001 -2264.3101 31193.219 4282003004
-896.51001 -2264.1301 31197.5 4282531668
-896.51001 -2262.1799 31175.449 4285293145
-896.5 -2266.45 31169.34 4284172623
-896.5 -2265.3499 31188.238 4281672753
-896.5 -2262.53 31158.43 4285556334
-896.5 -2262.52 31160.41 4288716454
-896.5 -2261.6899 31180.359 4283320663
-896.5 -2261.3701 31176.291 4284172133
-896.5 -2261.3599 31177.279 4282790735
-896.48999 -2263.8701 31199.82 4282793794
-896.48999 -2263.3601 31190.23 4293845740
-896.48999 -2262.4202 31178.281 4284173406
-896.48999 -2262.3801 31186.24 4284503649
-896.47998 -2266.52 31155.459 4294899198
-896.47998 -2265.73 31180.688 4282527018
-896.47998 -2265.6201 31179.66 4281408540
-896.47998 -2264.47 31163.379 4284571748
-896.47998 -2264.3699 31182.26 4283319118
-896.47998 -2263.49 31165.369 4288778392
-896.47998 -2263.46 31171.32 4283843915
-896.47998 -2263.4099 31180.27 4286674814
-896.47998 -2262.9102 31182.691 4284369225
-896.47998 -2262.3699 31187.23 4283845717
-896.47998 -2261.47 31158.42 4283581779
-896.46997 -2266.51 31157.439 4290949815
-896.46997 -2265.5701 31178.629 4282461227
-896.46997 -2265.4102 31177.279 4284306006
-896.46997 -2265.3401 31190.219 4281409584
-896.46997 -2264.8101 31170.371 4283909189
-896.46997 -2264.3801 31181.26 4286411899
-896.46997 -2264.3499 31186.24 4283120202
-896.46997 -2264.3499 31187.23 4281542707
-896.46997 -2263.3401 31194.211 4281936952
-896.46997 -2262.4299 31177.279 4283317845
-896.46997 -2261.47 31157.432 4284700255
-896.46997 -2261.28 31192.221 4283385678
-896.46997 -2260.2 31196.201 4283779924
-896.45996 -2263.4199 31178.271 4282858309
-896.45996 -2260.2197 31175.229 4281741107
-896.45996 -2260.2197 31193.209 4287529351
-896.45007 -2266.7102 31159.092 4280620310
-896.45007 -2266.3201 31154.959 4281477414
-896.45007 -2265.3799 31183.248 4284831588
-896.45007 -2265.25 31174.5 4280028170
-896.44 -2266.51 31158.42 4289766574
-896.44 -2265.3601 31187.23 4286805117
-896.44 -2265.3201 31193.209 4281937211
-896.44 -2264.47 31164.371 4286806401
-896.44 -2264.3201 31192.209 4286739845
-896.44 -2263.49 31187.859 4283712834
-896.44 -2259.3 31202.191 4282070332
-896.42999 -2265.5898 31177.6 4281540894
-896.42999 -2264.4099 31176.279 4282990148
-896.42999 -2263.3401 31193.209 4285226348
-896.42999 -2261.28 31193.209 4283122250
-896.42999 -2260.3599 31166.352 4283122764
-896.41998 -2264.3601 31185.23 4282857800
-896.41998 -2261.4202 31167.34 4292990171
-896.40997 -2266.53 31154.459 4291869125
-896.40997 -2265.46 31167.34 4286276714
-896.40997 -2265.45 31155.758 4289702053
-896.40997 -2265.3 31198.199 4288779157
-896.40997 -2264.5901 31166.242 4284438354
-896.40997 -2264.4099 31175.281 4287135107
-896.40997 -2264.3801 31180.262 4289307038
-896.40997 -2262.8201 31179.6 4281277206
-896.40997 -2262.54 31176.502 4285029715
-896.40997 -2261.3301 31183.24 4286675079
-896.40997 -2260.1001 31181.602 4289896088
-896.40997 -2259.3398 31196.191 4283714131
-896.40997 -2258.8899 31202.262 4281872423
-896.39996 -2264.3999 31177.27 4281213737
-896.39996 -2263.4199 31179.26 4285292901
-896.39996 -2263.3301 31195.199 4282527806
-896.39996 -2262.02 31197.25 4282268496
-896.39996 -2261.4202 31166.34 4287661710
-896.39996 -2261.3101 31188.221 4282267455
-896.39996 -2261.29 31191.211 4283056970
-896.39996 -2259.3301 31198.189 4283056459
-896.38995 -2266.76 31158.068 4280882973
-896.38995 -2266.6799 31157.031 4281738024
-896.38995 -2266.5801 31156 4282461237
-896.38995 -2265.4199 31175.281 4287201152
-896.38995 -2265.3901 31180.25 4287006344
-896.38995 -2264.74 31167.279 4282068266
-896.38995 -2264.3999 31178.26 4283122242
-896.38995 -2264.3899 31179.26 4288582548
-896.38995 -2263.49 31166.34 4288251278
-896.38995 -2263.45 31173.291 4285291878
-896.38995 -2262.6899 31177.529 4283844929
-896.38995 -2260.3599 31167.33 4285030761
-896.38995 -2260.0901 31202.121 4282005319
-896.38007 -2265.6201 31176.568 4281278750
-896.38007 -2264.5901 31165.211 4285293915
-896.38007 -2264.3699 31183.24 4285292652
-896.38007 -2264.3201 31162.109 4282002216
-896.38007 -2264.3101 31194.199 4279271552
-896.38007 -2264.1301 31160.041 4285423704
-896.38007 -2263.3499 31191.211 4289569199
-896.38007 -2263.3201 31197.189 4282528055
-896.38007 -2262.52 31159.398 4286017658
-896.38007 -2260.1899 31199.191 4282859848
-896.37006 -2264.25 31161.08 4283647039
-896.37006 -2263.3499 31192.199 4287924120
-896.37006 -2263.3301 31196.191 4283120192
-896.37006 -2262.8301 31178.57 4283317300
-896.35999 -2265.4102 31176.27 4284503388
-896.35999 -2264.5601 31164.182 4285030230
-896.35999 -2264.47 31163.15 4283977542
-896.35999 -2264.3401 31188.211 4283119941
-896.35999 -2264.1101 31200.852 4282334289
-896.35999 -2260.2 31197.18 4282990410
-896.35999 -2259.0701 31201.209 4285686623
-896.34998 -2265.3 31197.189 4292135116
-896.34998 -2264.3601 31184.229 4282003004
-896.34998 -2263.6201 31186.828 4282528560
-896.34998 -2261.77 31155.512 4281347113
-896.34998 -2261.3 31190.201 4284044119
-896.34998 -2259.45 31175.27 4287528848
-896.33997 -2265.29 31199.18 4282791735
-896.33997 -2264.4199 31174.279 4285950317
-896.33997 -2263.8501 31188.9 4283910213
-896.33997 -2260.1802 31200.18 4282728006
-896.32996 -2265.3699 31185.221 4286080626
-896.32996 -2263.4001 31183.74 4283909184
-896.32996 -2263.3801 31201.238 4282925636
-896.32996 -2262.3401 31193.188 4284371552
-896.31995 -2265.6799 31175.549 4281015576
-896.31995 -2265.46 31168.32 4288382089
-896.31995 -2263.46 31172.289 4288054667
-896.31995 -2261.27 31194.189 4284371551
-896.31995 -2261.0901 31189.881 4289767842
-896.31995 -2260.2 31198.182 4282991178
-896.31006 -2265.3098 31196.18 4294832629
-896.30005 -2265.52 31157.41 4286673270
-896.30005 -2263.3201 31198.182 4284569183
-896.29004 -2265.2 31169.359 4282988341
-896.29004 -2264.26 31159.021 4284502608
-896.29004 -2264.26 31192.002 4280490776
-896.29004 -2261.3 31189.199 4286543999
-896.29004 -2259.23 31200.43 4281872938
