# .PCD v0.7 - Point Cloud Data file format
VERSION 0.7
FIELDS x y z rgb
SIZE 4 4 4 4
TYPE F F F U
COUNT 1 1 1 1
WIDTH 1145
HEIGHT 1
VIEWPOINT 0 0 0 1 0 0 0
POINTS 1145
DATA ascii
-33.47998 -24.810059 28.859375 3427746364
-33.97998 -23.98999 28.859375 3426826289
-6.0100098 -8.6800537 28.859375 3426496310
4.619873 -24.349976 28.859375 3426362157
4.3598633 -23.949951 28.859375 3427217464
4.1298828 -23.540039 28.859375 3428335945
4.1398926 -27.819946 28.859375 3428009784
-27.349976 -42.800049 28.859375 3429389898
4.4799805 -27.439941 28.869141 3427548976
-32.920044 -35.209961 28.869141 3426692395
1.3200684 -36.599976 28.869141 3429257806
-15.680054 -7.8499756 28.869141 3426694714
-15.930054 -8.4699707 28.869141 3426563641
5.0600586 -26.319946 28.869141 3427350590
5.0900879 -25.75 28.869141 3427482689
4.8498535 -25.319946 28.869141 3427944010
4.3598633 -25.040039 28.869141 3426954807
-6.9199219 -8.1500244 28.869141 3426364211
-33.630005 -24.339966 28.869141 3426760496
-34.030029 -23.439941 28.869141 3427879488
-18 -46.48999 28.869141 3429323853
-17.26001 -46.650024 28.879883 3428140348
-33.810059 -22.680054 28.879883 3427550523
-7.5900879 -7.9799805 28.879883 3426430002
-7.8200684 -7.5699463 28.879883 3426627382
-8.3300781 -7.3100586 28.879883 3426561589
5.0200195 -26.859985 28.879883 3428337485
-15.109985 -7.7800293 28.879883 3426694201
-0.13012695 -38.069946 28.879883 3429390925
4.8498535 -27.22998 28.879883 3427152936
-27.910034 -42.290039 28.879883 3429718350
-26.080078 -43.069946 28.889648 3426625050
-33.690063 -33.619995 28.889648 3427021612
5.1499023 -25.599976 28.889648 3427613998
-33.070068 -21.579956 28.889648 3428139580
-16.400024 -46.709961 28.889648 3427943739
-15.400024 -46.660034 28.899414 3426363682
-15.23999 -47.109985 28.899414 3431232878
-14.609985 -47.329956 28.899414 3431759222
-33 -20.359985 28.899414 3426692647
-32.910034 -20.890015 28.899414 3427613750
-27.330078 -43.040039 28.899414 3428864834
-26.910034 -43.160034 28.899414 3427350313
-26.530029 -42.97998 28.899414 3425836817
0.15991211 -37.329956 28.899414 3428338237
0.56005859 -37.319946 28.899414 3426562082
-33.5 -34.52002 28.899414 3426626602
-14.48999 -7.6899414 28.899414 3426693943
0.93994141 -37.140015 28.90918 3426166039
3.9699707 -27.97998 28.90918 3428270924
-32.710083 -19.579956 28.90918 3428336959
-12.930054 -46.869995 28.919922 3428666951
-10.180054 -7.7199707 28.919922 3426431290
1.25 -36.699951 28.919922 3427679535
-27.820068 -42.699951 28.919922 3429391179
1.4699707 -35.180054 28.919922 3428204862
-13.550049 -8.2299805 28.919922 3426431029
5.0300293 -25.939941 28.929688 3426627877
-11.050049 -7.6300049 28.929688 3426431292
4.0998535 -29.540039 28.929688 3427614527
3.8598633 -29.130005 28.929688 3427680586
3.5900879 -28.72998 28.929688 3428930137
-31.800049 -18.400024 28.929688 3428270653
-31.210083 -17.410034 28.939453 3427546931
-11.950073 -46.859985 28.939453 3428206400
4.0800781 -30.630005 28.939453 3428996177
4.1699219 -30.040039 28.939453 3427680319
-11.48999 -7.3299561 28.939453 3426496059
2.1499023 -34.530029 28.939453 3427481139
-28.580078 -41.140015 28.939453 3428797250
-10.849976 -46.780029 28.939453 3426363160
-10.48999 -46.599976 28.939453 3428205365
-12.030029 -46.900024 28.939453 3430377052
-12.670044 -7.6300049 28.939453 3426562617
-12.859985 -8.3299561 28.939453 3426102322
-12.22998 -7.3599854 28.949219 3427220546
-11.650024 -46.709961 28.949219 3427021861
-11.300049 -46.5 28.949219 3426297625
-10.119995 -46.439941 28.949219 3430968671
-9.7199707 -46.219971 28.949219 3430048341
-14.790039 -47.280029 28.949219 3432217463
-14.359985 -47.300049 28.949219 3428402239
-13.969971 -47.119995 28.949219 3427941687
-29.070068 -40.76001 28.949219 3428335929
2.5500488 -34.359985 28.949219 3428007483
1.7700195 -34.589966 28.949219 3426691623
-10.77002 -46.72998 28.949219 3428009534
-31.130005 -16.76001 28.949219 3426954280
-34.47998 -31.98999 28.959961 3426495784
-15.190063 -47.300049 28.959961 3432613506
-11.660034 -7.2199707 28.959961 3427022656
-12.77002 -7.4599609 28.959961 3426956096
-28.460083 -41.660034 28.969727 3427613998
-34.630005 -33.209961 28.969727 3425903400
-13.670044 -46.72998 28.969727 3427940918
-12.550049 -46.420044 28.969727 3427943483
2.8498535 -33.75 28.969727 3428665413
-30.469971 -15.680054 28.969727 3428598848
1.369873 -35.160034 28.979492 3429785167
-13.369995 -46.26001 28.979492 3428270655
-13 -46.170044 28.979492 3428204090
-9.4599609 -45.51001 28.979492 3428930376
-10.700073 -7.75 28.979492 3426495798
3.0200195 -31.780029 28.979492 3428535628
2.119873 -34.709961 28.989258 3425641237
-11.070068 -46.939941 28.989258 3426559772
-10.719971 -46.829956 28.989258 3425112840
-16.890015 -46.76001 28.989258 3428928838
-16.5 -46.640015 28.989258 3428335931
-7.9799805 -45.01001 28.989258 3427483192
-7.6201172 -44.76001 28.989258 3428273475
-29.640015 -40.069946 28.989258 3428007220
5.1098633 -22.900024 28.989258 3430113874
-28.97998 -14.060059 28.989258 3426232096
-10.330078 -46.640015 29 3427350315
-9.9400635 -46.459961 29 3431036263
-15.01001 -47.439941 29 3432482679
-14.599976 -47.459961 29 3431101026
-14.210083 -47.410034 29 3427877172
2.4899902 -34.51001 29 3427550004
-34.469971 -32.26001 29 3426363432
1.7099609 -34.73999 29 3428798788
-29.02002 -41.069946 29 3427481899
-12.27002 -47.040039 29 3427744046
-11.880005 -46.949951 29 3428928320
-7.2299805 -44.589966 29 3427812922
-8.4499512 -44.73999 29 3426364457
-6.5 -44.420044 29 3427154994
-6.1201172 -44.349976 29 3426102306
-5.7700195 -44.209961 29 3428141120
-15.780029 -46.280029 29 3427744822
-17.320068 -46.699951 29 3428534080
-9.2199707 -44.859985 29 3427943994
2.8100586 -33.560059 29 3425245468
2.8300781 -33 29 3427219004
2.5400391 -32.579956 29 3428140617
-14.440063 -7.7700195 29 3426100533
-11.550049 -46.569946 29.009766 3427480874
-13.900024 -47.050049 29.009766 3427942200
-15.440063 -47.329956 29.009766 3428074549
-8.8701172 -44.599976 29.009766 3426758958
-17.76001 -46.47998 29.009766 3427415856
-16.180054 -46.27002 29.009766 3425638933
-6.9001465 -44.359985 29.009766 3428273473
-9.7299805 -8.25 29.009766 3426627128
-6.4099121 -44.630005 29.009766 3434391454
-8.9799805 -7.4699707 29.019531 3426891070
-9.3200684 -7.9100342 29.019531 3426955836
-12.800049 -46.48999 29.019531 3427218218
-9.6300049 -45.959961 29.019531 3429654610
-18.190063 -46.380005 29.019531 3429192267
-18.969971 -46.469971 29.019531 3429982297
-15.72998 -7.8800049 29.019531 3423666962
2.6098633 -34.199951 29.019531 3427482430
-13.599976 -46.589966 29.029297 3428008506
-13.26001 -46.300049 29.029297 3428271419
-29.580078 -40.469971 29.029297 3427679020
2.7700195 -33.77002 29.029297 3428799041
5 -23.300049 29.029297 3426692895
-18.599976 -46.319946 29.029297 3429653331
-30.26001 -39.23999 29.029297 3428138804
-8.4499512 -7.3299561 29.029297 3426562875
-17.119995 -46.969971 29.040039 3427612723
-16.76001 -46.829956 29.040039 3428336959
-8.1799316 -45.119995 29.040039 3426561306
-7.7800293 -44.98999 29.040039 3428403765
2.9699707 -31.97998 29.040039 3427349553
-19.48999 -46.030029 29.040039 3428140093
-5.5300293 -43.27002 29.040039 3427812157
-7.4099121 -44.839966 29.049805 3428141107
-7.0600586 -44.540039 29.049805 3428272692
-6.6501465 -44.579956 29.049805 3428141361
-6.2399902 -44.540039 29.049805 3426955809
-5.8701172 -44.319946 29.049805 3428600635
-9.4001465 -45.130005 29.049805 3428602692
-17.570068 -46.790039 29.049805 3426493725
-16.420044 -46.599976 29.049805 3425310734
-8.6501465 -44.869995 29.049805 3426166038
-4.0600586 -42.680054 29.049805 3427547702
-3.6799316 -42.609985 29.049805 3427876667
-7.5400391 -7.7800293 29.049805 3426168371
1.4699707 -35.369995 29.049805 3428272205
1.3000488 -36 29.05957 3428601940
-30.180054 -39.689941 29.05957 3427481642
-16.090088 -46.22998 29.05957 3424455424
-18.02002 -46.609985 29.05957 3427480874
-9.0600586 -44.75 29.05957 3427943992
-3.3000488 -42.27002 29.05957 3428206915
3.2900391 -31.51001 29.05957 3426757414
-4.5 -42.469971 29.05957 3426363174
-18.820068 -46.579956 29.069336 3430770522
-18.440063 -46.469971 29.069336 3429388871
-4.9299316 -42.26001 29.069336 3426165795
-30.910034 -38.26001 29.069336 3427941171
3.6499023 -31.140015 29.069336 3427415344
-2.9399414 -41.97998 29.069336 3428470601
-21.160034 -45.709961 29.069336 3428466226
-20.76001 -45.719971 29.069336 3427941170
-20.410034 -45.5 29.069336 3426955818
-33.859985 -22.910034 29.069336 3426628148
-34.140015 -23.51001 29.069336 3426891320
1.3598633 -36.51001 29.069336 3427614793
-18.070068 -8.5300293 29.069336 3427351370
-34.02002 -24.829956 29.080078 3427154492
-34.170044 -25.73999 29.080078 3427088699
-34.380005 -26.439941 29.080078 3427154492
-34.420044 -27.47998 29.080078 3427417664
-32.719971 -19.430054 29.080078 3427285312
-33.030029 -19.97998 29.080078 3427024450
-33.180054 -20.869995 29.080078 3426629692
-19.23999 -46.579956 29.080078 3427875883
-20.070068 -45.25 29.080078 3425771545
-21.580078 -45.650024 29.080078 3428532019
-5.3200684 -42.22998 29.080078 3427086891
3.9699707 -30.839966 29.080078 3427548723
-5.6401367 -43.380005 29.089844 3429060933
2.8798828 -32.140015 29.089844 3427616050
-22.050049 -45.599976 29.089844 3429125184
-32.890015 -22.420044 29.089844 3426432059
-33.23999 -22.859985 29.089844 3426234164
-32.170044 -19.27002 29.089844 3427285312
-34.660034 -30.369995 29.089844 3427220536
-5.9299316 -8.2800293 29.089844 3427352388
-6.3300781 -8.6700439 29.089844 3426365750
-34.570068 -31.709961 29.099609 3425378843
-34.01001 -29.319946 29.099609 3427220796
-34.290039 -29.910034 29.099609 3427155002
-30.859985 -16.219971 29.099609 3426825275
-31.219971 -16.599976 29.099609 3426891068
-31.5 -17.25 29.099609 3426825275
-31.599976 -18.119995 29.099609 3426759225
-31.710083 -18.98999 29.099609 3427022140
-4.130127 -42.869995 29.099609 3427086892
-3.7399902 -42.72998 29.099609 3427547955
-30.800049 -38.810059 29.099609 3427218470
-1.9499512 -41.040039 29.099609 3427418941
-19.369995 -8.6600342 29.099609 3430312055
0.35986328 -37.640015 29.099609 3427286341
-3.4099121 -42.390015 29.109375 3427483186
-4.5700684 -42.640015 29.109375 3426691876
3.1899414 -31.630005 29.109375 3427023143
-1.6000977 -40.780029 29.109375 3427943230
-2.380127 -40.920044 29.109375 3425247770
-22.619995 -45.079956 29.109375 3427875632
3.5400391 -31.25 29.119141 3426496799
-3.0600586 -42.040039 29.119141 3427943739
-19.820068 -45.709961 29.119141 3425706000
-21.390015 -45.869995 29.119141 3427153963
-20.98999 -45.880005 29.119141 3427220267
-20.609985 -45.72998 29.119141 3426825252
-31.590088 -37.209961 29.119141 3428073274
4.2099609 -29.800049 29.119141 3427483957
-29.900024 -15.77002 29.119141 3426759736
-30.190063 -16.290039 29.119141 3426825529
-4.8500977 -9.0300293 29.119141 3427747403
-0.13012695 -38.469971 29.119141 3429128032
-29.080078 -13.939941 29.129883 3426759736
-29.599976 -15.209961 29.129883 3426628406
-34.030029 -33.780029 29.129883 3426234152
-20.26001 -45.48999 29.129883 3425970200
-21.810059 -45.76001 29.129883 3427614514
-5.4299316 -42.380005 29.129883 3426626592
-5.0200195 -42.400024 29.129883 3426297372
3.8999023 -30.98999 29.129883 3427154216
-2.7900391 -40.579956 29.129883 3424391948
-22.219971 -45.72998 29.139648 3428470076
-24 -44.560059 29.139648 3427021349
-29.060059 -15.109985 29.139648 3426496821
-28.76001 -13.459961 29.139648 3426957115
-0.64013672 -39.280029 29.139648 3428271953
-28.26001 -13.23999 29.149414 3426957374
-1.9899902 -41.23999 29.149414 3426233372
-23.619995 -44.449951 29.149414 3427087399
-23.25 -44.26001 29.149414 3426297371
-24.820068 -44.73999 29.149414 3427350573
-24.410034 -44.640015 29.149414 3427350316
-1.3601074 -39.76001 29.149414 3427614263
-0.95996094 -39.77002 29.149414 3427679542
-3.5800781 -10.099976 29.149414 3427746892
-22.719971 -45.23999 29.15918 3426890277
-31.51001 -37.560059 29.15918 3427679282
-2.4299316 -41.170044 29.15918 3423535616
-32.219971 -36.359985 29.15918 3427679029
-25.25 -44.530029 29.15918 3427547442
-27.719971 -13.089966 29.15918 3426562616
-27.190063 -12.939941 29.169922 3426366266
-1.5700684 -40.359985 29.169922 3428074574
-2.9099121 -40.780029 29.169922 3429588558
4.1098633 -29.939941 29.169922 3429259592
-1.6699219 -40.73999 29.169922 3428206904
-0.65991211 -39.199951 29.169922 3428929609
-32.040039 -37.079956 29.179688 3427547956
-0.33007813 -38.819946 29.179688 3429324113
-2.5700684 -10.72998 29.179688 3427812685
-1.7800293 -41.030029 29.179688 3428338000
-25.930054 -12.030029 29.189453 3427156293
-26.340088 -12.349976 29.189453 3427682382
-26.47998 -13.079956 29.189453 3427090502
-24.849976 -44.920044 29.189453 3427545639
-24.090088 -44.709961 29.189453 3427152681
-23.700073 -44.609985 29.199219 3426823460
-23.310059 -44.420044 29.199219 3426363932
-24.48999 -44.72998 29.199219 3427217446
-1.4001465 -39.949951 29.199219 3427943733
-1.0200195 -39.800049 29.199219 3427417389
-32.840088 -35.420044 29.199219 3427152687
-25.450073 -11.75 29.199219 3426036272
-25.290039 -44.709961 29.209961 3427216417
-0.090087891 -37.920044 29.209961 3427744563
4.2600098 -27.640015 29.209961 3427286322
4.6298828 -27.390015 29.209961 3426627876
-0.71997166 -39.339966 29.219727 3428404030
4.9699707 -27.069946 29.219727 3426759462
-25.950073 -43.209961 29.219727 3426429474
-0.94995117 -12.339966 29.219727 3426628158
-24.420044 -11.319946 29.219727 3426825790
-24.73999 -11.849976 29.219727 3426431032
-24.109985 -10.76001 29.229492 3426759484
-3.4299316 -42.51001 29.229492 3428141135
-0.37011719 -38.969971 29.229492 3429194061
-32.719971 -36.01001 29.229492 3426627370
0.62988281 -37.390015 29.229492 3426625313
-26.849976 -43.119995 29.229492 3427153197
-26.469971 -42.949951 29.229492 3425639958
1 -37.109985 29.239258 3428599103
-27.300049 -43.030029 29.239258 3428666436
0.19995117 -37.300049 29.239258 3426756899
-33.47998 -34.459961 29.239258 3426955565
-23.619995 -10.530029 29.239258 3426693171
-22.940063 -10.599976 29.25 3426824759
0.80004883 -13.560059 29.25 3429061469
0.41992188 -13.23999 29.25 3428732504
0.12988281 -13 29.25 3430840454
4.1398926 -27.800049 29.259766 3429653581
4.5 -27.550049 29.259766 3427350827
-25.97998 -43.48999 29.259766 3426559257
1.2900391 -36.449951 29.259766 3429651792
-27.840088 -42.579956 29.259766 3429718352
-0.16992188 -13.02002 29.259766 3427352132
0.81005859 -14.609985 29.259766 3428272207
0.89990234 -14.060059 29.259766 3428535125
4.1899414 -19.199951 29.259766 3429919088
4.0400391 -18.73999 29.259766 3425577004
3.75 -18.369995 29.259766 3425706026
2.7199707 -17.319946 29.259766 3428600911
2.6499023 -16.819946 29.259766 3429390173
2.3798828 -16.439941 29.259766 3429918059
2.0998535 -16.050049 29.259766 3427615563
1.8100586 -15.689941 29.259766 3426233910
-22.650024 -9.9799805 29.259766 3426956347
-22.130005 -9.8100586 29.269531 3426824507
1.25 -15.449951 29.269531 3426035245
3.0500488 -18.22998 29.269531 3426034730
4.7600098 -21.040039 29.269531 3423076616
-0.65991211 -12.75 29.269531 3426562616
-1.0600586 -12.410034 29.269531 3425312036
3.8798828 -19.910034 29.269531 3430774397
-0.17993164 -37.829956 29.269531 3429851989
4.8598633 -27.25 29.269531 3426363420
-33.51001 -34.27002 29.269531 3428073787
-33.290039 -34.709961 29.269531 3427152684
-32.910034 -35.040039 29.269531 3427284017
-31.950073 -36.75 29.269531 3428860731
-31.719971 -37.180054 29.269531 3428729147
-31.450073 -37.550049 29.269531 3427874872
-31.099976 -37.890015 29.269531 3427941176
-30.560059 -38.709961 29.269531 3428204862
-30.219971 -39.040039 29.269531 3428599620
-30.040039 -39.52002 29.269531 3429256521
-29.630005 -39.829956 29.269531 3428730177
-29.170044 -40.719971 29.269531 3428599871
-28.780029 -41.069946 29.269531 3428994629
-28.340088 -41.369995 29.279297 3427876659
-27.810059 -42.170044 29.279297 3429388871
-27.660034 -42.670044 29.279297 3429783629
-27.27002 -43 29.279297 3428796738
-29.300049 -40.209961 29.279297 3427874867
-30.430054 -38.060059 29.279297 3427940920
-32.550049 -35.400024 29.279297 3428204083
-31.940063 -35.589966 29.279297 3428334898
-32.030029 -36.22998 29.279297 3428466484
-33.280029 -33.530029 29.279297 3429719376
-34.550049 -31.430054 29.279297 3427679799
-34.48999 -31.97998 29.279297 3427416624
-34.040039 -32.26001 29.279297 3425903128
-33.390015 -34.969971 29.279297 3426494765
0.19995117 -37.540039 29.279297 3427483443
0.59985352 -37.5 29.279297 3426167068
-27.280029 -43.26001 29.279297 3429391179
-26.880005 -43.27002 29.279297 3427022888
-26.52002 -43.050049 29.279297 3426493977
4.1599121 -20.800049 29.279297 3423800339
-2 -11.849976 29.279297 3426890554
-2.0500488 -11.359985 29.279297 3426430003
-2.4199219 -11.030029 29.279297 3426824761
-2.7800293 -10.689941 29.279297 3426297904
2.3300781 -18.060059 29.279297 3427416383
0.59985352 -15.25 29.279297 3426758968
4.8999023 -22.030029 29.279297 3427744582
4.869873 -21.51001 29.279297 3427021627
4.8898926 -22.579956 29.290039 3428731218
3.4199219 -20.680054 29.290039 3427418954
-1.9699717 -12.359985 29.290039 3426956861
-5.7099609 -44.359985 29.290039 3426759736
-21.410034 -9.9699707 29.290039 3426364725
0.94995117 -37.180054 29.290039 3428271671
-33.430054 -32.449951 29.290039 3426298138
-33.22998 -32.930054 29.290039 3428864067
-34.52002 -30.25 29.290039 3427809587
-34.580078 -30.869995 29.290039 3428008507
-26.530029 -43.119995 29.290039 3427480361
-27.550049 -41.430054 29.290039 3427612974
-25.550049 -43.680054 29.290039 3428007732
-25.430054 -44.170044 29.290039 3428007732
-25.109985 -44.540039 29.290039 3428008247
-24.580078 -44.810059 29.290039 3428008249
-25.609985 -43.140015 29.299805 3427612715
-27.77002 -42.900024 29.299805 3428930628
-34.560059 -33.369995 29.299805 3426363947
1.8000488 -14.660034 29.299805 3433078444
-20.469971 -9.4000244 29.299805 3426956094
-20.830078 -9.8599854 29.299805 3426167605
-3.6501465 -10.619995 29.299805 3427547971
-3.8901367 -10.219971 29.299805 3427877449
-4.1501465 -9.8299561 29.299805 3431299201
-4.9199219 -9.1800537 29.299805 3426496825
-5.2700195 -8.8100586 29.299805 3425707563
-4.7600098 -9.6300049 29.30957 3428339029
4.7299805 -24.290039 29.30957 3425835813
4.4499512 -23.910034 29.30957 3427875396
-20.099976 -8.9799805 29.30957 3427812943
-23.150024 -44.469971 29.30957 3427021358
-22.650024 -44.76001 29.319336 3427087151
-22.5 -45.26001 29.319336 3429060941
-22.180054 -45.619995 29.319336 3431166058
-21.5 -45.780029 29.319336 3430704996
-34.460083 -27.27002 29.319336 3427417144
-34.300049 -27.73999 29.319336 3426429739
-33.950073 -28.089966 29.319336 3427285558
-33.810059 -28.569946 29.319336 3427547704
-33.380005 -28.890015 29.319336 3427810617
-19.650024 -8.6600342 29.319336 3427220806
4.0200195 -23.599976 29.319336 3428862291
-5.9699707 -8.6600342 29.319336 3426627896
1.2199707 -36.52002 29.319336 3430245207
4.9899902 -24.680054 29.319336 3427547948
-28.530029 -41.349976 29.319336 3429257031
-10.849976 -46.810059 29.319336 3429784909
-11.98999 -47.089966 29.319336 3429388364
-11.599976 -46.930054 29.319336 3425442831
-11.25 -46.75 29.330078 3427876657
-10.47998 -46.670044 29.330078 3430508632
-10.109985 -46.47998 29.330078 3430508119
1.4099121 -34.859985 29.330078 3426560037
1.7800283 -34.670044 29.330078 3426823465
-34.349976 -32.530029 29.330078 3426626602
-14.77002 -47.380005 29.330078 3432086132
-14.330078 -47.430054 29.330078 3430178135
-13.950073 -47.219971 29.330078 3428467516
-6.7399902 -8.5699463 29.330078 3426167345
4.8100586 -25.900024 29.330078 3427285310
-19.070068 -8.5600586 29.330078 3426103351
-34.26001 -25.930054 29.330078 3427613495
-34.200073 -26.51001 29.330078 3428337218
-20.660034 -45.829956 29.330078 3427086381
-19.420044 -46.219971 29.339844 3430047830
4.3300781 -25.599976 29.339844 3427154494
4.0900879 -25.189941 29.339844 3426825527
4.9099121 -26.920044 29.339844 3427284799
4.9299316 -26.390015 29.339844 3426429490
-7.4199219 -8.4000244 29.339844 3426298931
-7.630127 -8 29.339844 3426627381
-7.8701172 -7.5899658 29.339844 3426627127
-8.1899414 -7.2399902 29.339844 3426232626
2.1398926 -34.5 29.339844 3427941690
2.5300283 -34.25 29.339844 3428599620
-9.7199707 -46.219971 29.339844 3430113621
-15.170044 -47.380005 29.339844 3434454165
-12.5 -46.660034 29.339844 3427085609
-29.02002 -40.949951 29.339844 3428533310
-28.390015 -41.97998 29.349609 3427810864
-12.940063 -46.47998 29.349609 3425835542
-13.680054 -46.670044 29.349609 3427809588
-18.320068 -8.7700195 29.349609 3425971765
-18.960083 -46.48999 29.349609 3429389900
-19.550049 -45.72998 29.349609 3426098716
-34.070068 -23.469971 29.349609 3428207683
-34.070068 -24.050049 29.349609 3427023666
-33.880005 -24.51001 29.349609 3426298918
-33.450073 -24.790039 29.349609 3426364711
-18.060059 -46.530029 29.359375 3428929095
-17.400024 -46.73999 29.359375 3428206141
-17.72998 -8.6099854 29.359375 3426169401
4.8798828 -25.040039 29.359375 3427481641
-29.560059 -40.380005 29.359375 3428270394
2.8400879 -33.660034 29.359375 3428862792
-34.300049 -32.959961 29.369141 3426363179
-11.060059 -47.02002 29.369141 3428204597
-10.700073 -46.890015 29.369141 3428731454
-12.23999 -47.170044 29.369141 3428073525
-11.840088 -47.150024 29.369141 3429059906
-9.4799805 -45.390015 29.369141 3428074553
-7.9599609 -45.119995 29.369141 3428339015
-13.380005 -46.160034 29.369141 3426756900
-17.26001 -8.3599854 29.369141 3426431292
4.2299805 -27.839966 29.369141 3428272207
-16.540039 -46.800049 29.369141 3427613748
-33.430054 -22.430054 29.369141 3427681598
-15.52002 -46.73999 29.379883 3427877435
-15.310059 -47.160034 29.379883 3428535365
-33.140015 -21.040039 29.379883 3427153198
-33.080078 -21.599976 29.379883 3427351606
-11.48999 -46.839966 29.379883 3425836049
-10.330078 -46.640015 29.379883 3430179414
-9.9300537 -46.459961 29.379883 3432482682
-15 -47.52002 29.379883 3434061450
-14.580078 -47.569946 29.379883 3431429732
-14.180054 -47.540039 29.379883 3428535100
-28.98999 -41.199951 29.379883 3427876912
1.3400879 -34.959961 29.379883 3429653068
1.7199707 -34.810059 29.379883 3427416877
-34.77002 -32.660034 29.379883 3426034730
-17.290039 -46.819946 29.379883 3428007736
-16.880005 -46.790039 29.379883 3429520975
-16.47998 -46.699951 29.379883 3426889255
-7.6000977 -44.849976 29.379883 3428734027
-7.2299805 -44.589966 29.379883 3428075839
-8.4099121 -44.910034 29.379883 3425969950
-9.1899414 -45.02002 29.379883 3427153965
-15.73999 -46.459961 29.379883 3429981784
-6.4799805 -44.51001 29.379883 3427220271
-6.1000977 -44.439941 29.379883 3428469827
2.119873 -34.670044 29.389648 3425772310
2.4599609 -34.380005 29.389648 3428800071
-13.880005 -47.099976 29.389648 3428205628
-15.420044 -47.449951 29.389648 3431034715
-12.72998 -46.819946 29.389648 3425770770
-5.7700195 -44.209961 29.389648 3429259601
-17.72998 -46.630005 29.389648 3427679028
-8.8200684 -44.839966 29.389648 3426035743
-6.8901367 -44.430054 29.389648 3426957099
-16.170044 -46.310059 29.389648 3425572625
3.4399414 -28.810059 29.389648 3429324895
4.0100098 -29.589966 29.389648 3426758717
-10.410034 -7.8399658 29.389648 3426166577
-16.580078 -8.4599609 29.389648 3426299706
-33.200073 -20.5 29.389648 3427021612
-14.800049 -47.459961 29.389648 3431496050
-15.960083 -8.4499512 29.399414 3426497848
-11.200073 -7.7099609 29.399414 3426496059
3.6699219 -29.22998 29.399414 3428404309
4.0700684 -30.099976 29.399414 3427746110
-29.5 -40.790039 29.399414 3427547947
-18.950073 -46.569946 29.399414 3428403264
-18.170044 -46.459961 29.399414 3428074299
-9.6700439 -45.790039 29.40918 3428864583
-13.609985 -46.540039 29.40918 3427153455
-18.580078 -46.390015 29.40918 3427942456
-30.200073 -39.469971 29.40918 3428204345
4.0900879 -30.619995 29.40918 3427877696
-11.75 -7.4599609 29.40918 3426561852
-15.640015 -7.9499512 29.40918 3427087930
-13.390015 -47.160034 29.40918 3427811642
-32.330078 -19.319946 29.40918 3428073789
-31.670044 -18.310059 29.419922 3427612981
-12.140015 -46.97998 29.419922 3427614263
-15.030029 -7.9300537 29.419922 3427022139
-13.23999 -46.369995 29.419922 3426297886
-17.109985 -46.98999 29.419922 3427876151
-16.73999 -46.930054 29.419922 3428928583
-8.1501465 -45.26001 29.419922 3426560281
-7.7700195 -45.060059 29.419922 3429258561
2.7600098 -33.680054 29.419922 3428602692
-5.5200195 -43.280029 29.419922 3427351093
3.0300283 -32.310059 29.419922 3427020588
5 -22.23999 29.419922 3432811126
-19.450073 -46.189941 29.419922 3428271679
-7.4099121 -44.819946 29.429688 3428995389
-9.380127 -45.22998 29.429688 3427813175
-9 -45.050049 29.429688 3427020837
-8.6101074 -45.050049 29.429688 3425902867
-16.420044 -46.609985 29.429688 3427810359
-17.550049 -46.859985 29.429688 3426756897
-6.630127 -44.650024 29.429688 3426233364
-6.2299805 -44.599976 29.429688 3426166801
3.369873 -31.939941 29.429688 3426954794
3.3598633 -31.589966 29.429688 3427878468
-11.180054 -46.98999 29.429688 3427877435
-31.540039 -17.640015 29.429688 3426560037
-31.359985 -16.920044 29.439453 3427085866
-14.330078 -7.9899902 29.439453 3426693944
-5.8701172 -44.339966 29.439453 3428008498
-17.97998 -46.76001 29.439453 3427612460
-16.070068 -46.319946 29.439453 3425310219
-7.0600586 -44.560059 29.439453 3427745833
-4.0800781 -42.599976 29.439453 3427613497
-3.6899414 -42.540039 29.439453 3427810876
-18.810059 -46.650024 29.449219 3429717833
-30.140015 -39.829956 29.449219 3427613738
-3.2900391 -42.300049 29.449219 3429127504
-2.9299316 -42.040039 29.449219 3429390676
-30.840088 -38.560059 29.449219 3427810102
-4.5 -42.459961 29.449219 3426955825
-21.130005 -45.819946 29.449219 3427678769
-20.72998 -45.819946 29.449219 3427547183
-13.570068 -7.8599854 29.449219 3427416134
2.9399414 -32.939941 29.459961 3426627380
2.5300283 -32.589966 29.459961 3427811654
-13.320068 -8.6300049 29.459961 3426364979
2.9599609 -32.569946 29.459961 3427484211
-18.430054 -46.52002 29.459961 3428730426
-19.219971 -46.650024 29.459961 3427612709
4.8798828 -22.589966 29.459961 3427877169
-20.390015 -45.579956 29.459961 3426626594
-20.050049 -45.319946 29.459961 3425508373
-21.560059 -45.77002 29.459961 3428663863
-5.2800293 -42.439941 29.459961 3426429991
-4.9199219 -42.27002 29.459961 3426626858
3.6499023 -31.140015 29.459961 3427415600
-30.02002 -15.380005 29.459961 3428469058
3.9899902 -30.939941 29.469727 3428204860
-22.030029 -45.680054 29.469727 3429651528
-12.619995 -7.7299805 29.469727 3426365239
-12.880005 -8.3199463 29.469727 3426168115
2.8100586 -33.560059 29.469727 3424916762
-14.710083 -7.9100342 29.469727 3426627130
2.5500488 -34.22998 29.479492 3425969191
-12.170044 -7.4699707 29.479492 3426825790
-5.6501465 -43.359985 29.479492 3428600123
-1.9199219 -41.199951 29.479492 3428799820
-29.109985 -14.160034 29.479492 3426034716
-4.1501465 -42.75 29.489258 3426099997
-3.7600098 -42.609985 29.489258 3428073786
-30.73999 -39.030029 29.489258 3427218727
-19.77002 -45.949951 29.489258 3425836814
3.25 -31.959961 29.489258 3427024171
-2.3300781 -41.160034 29.489258 3424588814
-31.47998 -37.699951 29.489258 3427612723
-22.550049 -45.369995 29.489258 3429125697
-20.969971 -45.939941 29.5 3427351855
-20.580078 -45.829956 29.5 3426497057
-4.5800781 -42.599976 29.5 3426560033
-3.4001465 -42.400024 29.5 3427876407
-5.380127 -42.650024 29.5 3426955046
-31.940063 -37.530029 29.5 3427283758
-2.7399902 -40.859985 29.5 3425377816
-11.530029 -7.4599609 29.5 3426562105
-16.22998 -8.1300049 29.5 3424192536
-6.8500977 -44.900024 29.5 3434259869
-5.0100098 -42.449951 29.509766 3426494495
-3.0600586 -42.040039 29.509766 3428798278
-20.25 -45.52002 29.509766 3425443856
3.5500488 -31.290039 29.509766 3426694693
-21.780029 -45.890015 29.509766 3428996420
-21.369995 -45.969971 29.509766 3427548721
-1.6501465 -40.560059 29.509766 3427747389
-22.200073 -45.810059 29.519531 3430180694
3.9199219 -31.089966 29.519531 3426825508
4.1799316 -29.589966 29.519531 3428798020
1.3798828 -35.420044 29.519531 3427877447
1.3300781 -36.52002 29.529297 3427352391
1.2600098 -36.02002 29.529297 3427746890
-10.440063 -8.1899414 29.529297 3426430775
-2.4001465 -41.329956 29.529297 3424061696
-1.9799805 -41.329956 29.529297 3427943479
-22.650024 -45.560059 29.529297 3427087653
-1.3300781 -39.890015 29.529297 3426890026
-0.94995117 -39.829956 29.529297 3427613749
-24.810059 -44.780029 29.529297 3427613234
-24.390015 -44.72998 29.529297 3427547441
-23.969971 -44.670044 29.529297 3427284521
-23.590088 -44.579956 29.529297 3425968662
-23.219971 -44.390015 29.529297 3426033942
-31.849976 -37.849976 29.540039 3427088174
-31.420044 -37.920044 29.540039 3427153197
-25.25 -44.540039 29.540039 3427744821
-9.6400146 -8.4200439 29.540039 3426364212
-18.180054 -8.5899658 29.540039 3428865122
0.70996094 -37.439941 29.549805 3427023426
-9.2700195 -8.0100098 29.549805 3426562105
-2.8500977 -41.060059 29.549805 3427614263
-0.65991211 -39.23999 29.549805 3428469058
-0.32006836 -38.890015 29.55957 3428600644
-32.640015 -36.25 29.55957 3426955054
-8.5200195 -7.25 29.55957 3426628411
-8.9099121 -7.5999756 29.55957 3426627898
-1.7299805 -40.400024 29.569336 3429061960
4.0800781 -29.76001 29.569336 3427943479
-1.380127 -40.060059 29.580078 3427153963
-32.47998 -37.040039 29.580078 3426429993
-24.840088 -44.959961 29.580078 3427874605
-24.460083 -44.849976 29.580078 3427283239
-24.060059 -44.839966 29.580078 3427217704
-23.680054 -44.709961 29.580078 3425442318
-23.26001 -44.630005 29.580078 3424784901
-25.830078 -43.72998 29.580078 3426890025
-0.15014648 -38.47998 29.580078 3429325411
-20.23999 -9.0899658 29.589844 3436168404
-25.280029 -44.72998 29.589844 3427742504
-1.0100098 -39.829956 29.589844 3426298656
-0.71997166 -39.339966 29.599609 3428141114
-0.060058594 -38.050049 29.599609 3426494754
4.2700195 -27.719971 29.599609 3427154476
4.6499023 -27.5 29.599609 3426956841
-0.54003906 -39.219971 29.599609 3428733274
-7.1699219 -8.4100342 29.599609 3426365238
-34.170044 -23.47998 29.599609 3426890806
-34.25 -24.449951 29.609375 3427022906
-34.22998 -25.660034 29.609375 3427088699
-34.47998 -26.280029 29.609375 3427154492
-33.01001 -20.040039 29.609375 3427153724
-33.300049 -20.689941 29.609375 3427153724
-33.820068 -22.98999 29.609375 3426693173
-33.330078 -35.099976 29.609375 3426823470
0.64990234 -37.459961 29.609375 3427547442
-26.830078 -43.22998 29.609375 3426166302
-0.37011719 -38.97998 29.619141 3429588306
-26.460083 -43 29.619141 3425968923
-27.23999 -43.25 29.619141 3428600643
1.0100098 -37.160034 29.619141 3430573408
0.2199707 -37.410034 29.619141 3426034203
4.9599609 -27 29.619141 3427547948
-32.590088 -19.680054 29.619141 3427153726
-33.040039 -22.189941 29.619141 3426432059
-33.25 -22.859985 29.619141 3426824759
-34.570068 -27.219971 29.619141 3427286078
-31.599976 -17.099976 29.619141 3427022138
-31.76001 -17.859985 29.619141 3426824759
-31.670044 -19.079956 29.629883 3426824759
-32.070068 -19.469971 29.629883 3427022138
-34.219971 -28.949951 29.629883 3427351871
-31.210083 -16.630005 29.629883 3426956345
-34.650024 -30.400024 29.629883 3427154745
-5.7700195 -8.5699463 29.629883 3427812685
-6.1599121 -8.9699707 29.629883 3426760508
-1.4199219 -40.27002 29.629883 3427416898
-25.859985 -44.01001 29.629883 3427150367
-27.780029 -42.819946 29.639648 3429257803
-34.650024 -31.579956 29.639648 3427219768
-34.340088 -29.849976 29.639648 3426957368
-30.810059 -16.329956 29.639648 3427022138
-1.75 -41.02002 29.649414 3428666965
-0.14013672 -38.030029 29.649414 3427680567
-33.27002 -35.459961 29.649414 3426298407
4.1599121 -27.900024 29.649414 3427877170
4.5300293 -27.680054 29.649414 3426495008
1.3000488 -36.48999 29.649414 3430507615
-27.22998 -43.5 29.65918 3428337723
-26.849976 -43.400024 29.65918 3427154217
-29.560059 -15.300049 29.65918 3426628407
-29.840088 -15.900024 29.65918 3426825529
-29.930054 -16.780029 29.65918 3426957115
-29.130005 -13.880005 29.65918 3426956345
-34.119995 -33.650024 29.65918 3426825779
-4.7399902 -9.2199707 29.65918 3427944528
-29.060059 -15.119995 29.669922 3426956345
-28.690063 -13.599976 29.669922 3427022908
-26.5 -43.109985 29.669922 3425575442
4.8400879 -27.130005 29.669922 3426692385
0.2199707 -37.660034 29.669922 3424983309
0.60986328 -37.579956 29.669922 3425707028
0.95996094 -37.23999 29.679688 3427877172
-27.719971 -43.099976 29.679688 3428074038
-34.080078 -33.650024 29.679688 3426692397
-28.160034 -13.430054 29.679688 3427154494
-27.609985 -13.300049 29.689453 3426563129
-3.25 -42.410034 29.689453 3428995928
-28.469971 -41.609985 29.689453 3428730434
-11.960083 -47.22998 29.699219 3428401724
-11.550049 -47.170044 29.699219 3426493727
-10.840088 -46.859985 29.699219 3430837597
-27.099976 -13.119995 29.699219 3427024196
-3.3000488 -10.569946 29.699219 3427483977
3.7700195 -18.359985 29.709961 3424588313
0.7199707 -13.609985 29.709961 3429324895
1.2199707 -36.52002 29.709961 3430837857
-34.02002 -34.160034 29.709961 3426100777
-10.47998 -46.640015 29.709961 3429982288
-10.099976 -46.48999 29.709961 3429718604
-14.75 -47.469971 29.709961 3429914448
-14.300049 -47.530029 29.709961 3429519690
-13.930054 -47.319946 29.709961 3428795969
-11.210083 -46.900024 29.709961 3426758689
-34.650024 -32.98999 29.709961 3426494763
1.4399414 -35.01001 29.709961 3425441556
1.8000488 -34.75 29.719727 3427415604
2.1699219 -34.619995 29.719727 3427678520
-28.969971 -41.150024 29.719727 3428204346
-15.150024 -47.459961 29.719727 3431756652
-12.869995 -46.800049 29.719727 3426559520
-12.469971 -46.810059 29.719727 3427480622
-9.7299805 -46.170044 29.719727 3428797504
0.32006836 -13.290039 29.719727 3428930137
-0.2800293 -13.079956 29.719727 3427811656
3.119873 -18.189941 29.719727 3425179936
0.72998047 -14.660034 29.719727 3428469586
0.84985352 -14.089966 29.719727 3429127001
4.0300293 -19.290039 29.719727 3429458021
3.9299316 -18.800049 29.719727 3425378342
2.7900391 -17.290039 29.719727 3428337998
2.5400391 -16.869995 29.719727 3428601170
2.2700195 -16.5 29.719727 3429325663
2 -16.109985 29.719727 3426957887
1.6999512 -15.75 29.719727 3425839922
-2.3901367 -11.040039 29.719727 3426826048
-26.280029 -12.47998 29.719727 3428801120
-26.47998 -13.099976 29.719727 3428866913
-25.430054 -11.810059 29.729492 3426562616
-25.890015 -12.109985 29.729492 3428733783
1.0500488 -15.560059 29.729492 3426430003
3.9699707 -19.859985 29.729492 3432879773
4.8999023 -21.5 29.729492 3426232624
4.6999512 -21.069946 29.729492 3423535111
2.4699707 -17.98999 29.729492 3427416383
-0.71997166 -12.780029 29.729492 3426628409
-28.340088 -42.189941 29.729492 3427810866
2.5300283 -34.23999 29.729492 3428270657
4.8798828 -24.030029 29.739258 3427021860
-13.670044 -46.699951 29.739258 3426559007
-13.320068 -46.439941 29.739258 3425572625
-29.48999 -40.699951 29.739258 3428204860
-1.3000488 -12.540039 29.739258 3425509928
-2.0400391 -11.869995 29.739258 3428403793
-2.0400391 -11.359985 29.739258 3427680068
-2.4099121 -11.02002 29.739258 3427087933
-2.8100586 -10.699951 29.739258 3425772587
5 -21.969971 29.739258 3427547203
0.53002834 -15.280029 29.739258 3426627380
3.8898926 -20.949951 29.75 3427089989
4.9199219 -22.560059 29.75 3428007241
-2.0100098 -12.390015 29.75 3427285826
-5.2600098 -44.109985 29.75 3427417666
-24.440063 -11.319946 29.75 3427021886
-24.660034 -12.02002 29.75 3426430516
-11.050049 -47.050049 29.75 3427086116
-12.210083 -47.290039 29.75 3427218216
-11.790039 -47.369995 29.75 3427744560
-15.670044 -46.790039 29.75 3430574172
-16.840088 -46.959961 29.75 3428337212
-9.4499512 -45.560059 29.75 3427876661
-9.1201172 -45.319946 29.75 3427218989
-7.9599609 -45.119995 29.75 3428206913
-29.310059 -40.819946 29.75 3428599101
-33.540039 -34.869995 29.75 3427810871
-33.219971 -35.25 29.75 3427612983
-32.130005 -36.869995 29.75 3428531766
-32.040039 -37.390015 29.75 3427874874
-31.780029 -37.77002 29.75 3427809079
-31.400024 -38.079956 29.75 3427809334
-30.660034 -38.780029 29.75 3428862792
-30.369995 -39.150024 29.75 3428534594
-30.160034 -39.599976 29.75 3428533825
-29.640015 -39.839966 29.759766 3428730176
-29.340088 -40.23999 29.759766 3428532797
-30.530029 -38.119995 29.759766 3428073276
-32.75 -35.530029 29.759766 3427547188
-32.070068 -35.680054 29.759766 3428203312
-32.030029 -36.22998 29.759766 3428334387
-34.609985 -32.060059 29.759766 3428008504
-34.380005 -32.48999 29.759766 3426692896
-28.900024 -41.150024 29.759766 3428995140
-28.51001 -41.47998 29.759766 3427745073
-27.690063 -42.089966 29.759766 3428008244
-27.72998 -42.719971 29.759766 3429520203
-27.430054 -43.099976 29.759766 3429257033
-26.849976 -43.329956 29.759766 3427809843
-33.51001 -34.27002 29.759766 3428139839
-11.460083 -47 29.759766 3425375498
-14.97998 -47.609985 29.759766 3431363676
-14.560059 -47.680054 29.759766 3429784646
-14.170044 -47.589966 29.759766 3428863297
-10.700073 -46.900024 29.759766 3429849936
-28.950073 -41.369995 29.759766 3427679533
1.3598633 -35.069946 29.759766 3427547953
-7.5900879 -44.900024 29.759766 3428404805
-6.4599609 -44.599976 29.759766 3427220271
-6.0800781 -44.540039 29.759766 3430706787
-8.7700195 -45.079956 29.759766 3426561060
-16.460083 -46.829956 29.759766 3427613234
-17.290039 -46.819946 29.759766 3428139578
2.8300781 -33.609985 29.759766 3428007741
-24.070068 -10.859985 29.759766 3426824763
-4.0500488 -10.310059 29.759766 3428271953
-4.4099121 -9.9699707 29.759766 3429193825
-4.9799805 -9.2199707 29.759766 3426496824
-5.2399902 -8.8000488 29.759766 3425772843
3.2600098 -20.76001 29.759766 3429195365
4.7099609 -24.300049 29.769531 3425638434
4.5100098 -23.869995 29.769531 3427743810
-4 -10.800049 29.769531 3427548230
-4.8601074 -9.6800537 29.769531 3427549000
-23.550049 -10.670044 29.769531 3426758970
-0.85009766 -12.51001 29.769531 3426102073
1.7399902 -34.880005 29.769531 3426166811
2.1298828 -34.72998 29.769531 3427351344
-34.72998 -32.800049 29.769531 3426100266
-10.340088 -46.609985 29.769531 3429916242
-9.9300537 -46.469971 29.769531 3429587277
-13.869995 -47.170044 29.769531 3428468541
-15.380005 -47.609985 29.769531 3429718087
-17.710083 -46.709961 29.769531 3427942711
-16.150024 -46.410034 29.769531 3424783109
-8.4199219 -44.869995 29.769531 3427154225
-5.7600098 -44.23999 29.769531 3429588053
-7.2199707 -44.650024 29.769531 3427681082
-6.8601074 -44.560059 29.769531 3426496548
-27.780029 -41.579956 29.769531 3427416106
-33.880005 -32.75 29.769531 3426298138
-33.300049 -32.97998 29.769531 3427745587
-32.940063 -33.310059 29.769531 3427811379
-25.660034 -43.76001 29.769531 3427744560
-25.530029 -44.22998 29.769531 3427810866
-25.130005 -44.550049 29.769531 3428139833
-34.619995 -30.900024 29.769531 3428730689
-34.580078 -31.449951 29.769531 3428796482
-34.460083 -30.219971 29.779297 3428139067
-24.690063 -44.869995 29.779297 3427811128
-25.810059 -43.27002 29.779297 3427284009
-12.719971 -46.849976 29.779297 3425771283
-29.450073 -41.02002 29.779297 3427680044
2.4599609 -34.380005 29.779297 3428996169
-18.150024 -46.560059 29.779297 3427877688
-23.02002 -10.48999 29.779297 3426890552
-6.1401367 -8.75 29.779297 3426364724
4.0998535 -23.560059 29.779297 3429454687
-22.619995 -10.050049 29.790039 3426890554
4.7600098 -24.359985 29.790039 3427745326
-13.590088 -46.619995 29.790039 3427415856
-13.160034 -46.72998 29.790039 3425179924
-18.940063 -46.569946 29.790039 3427877690
-18.560059 -46.48999 29.790039 3427088172
-30.140015 -39.719971 29.790039 3428007737
3.1298828 -32.880005 29.790039 3427349554
-23.570068 -44.72998 29.790039 3426955565
-22.800049 -44.859985 29.799805 3426626600
-22.640015 -45.349976 29.799805 3428073789
-22.320068 -45.699951 29.799805 3431626609
-34.580078 -27.339966 29.799805 3427745081
-34.51001 -27.880005 29.799805 3426627372
-34.23999 -28.280029 29.799805 3426758958
-33.810059 -28.569946 29.799805 3427285304
-33.380005 -28.890015 29.799805 3427941949
-16.710083 -47.079956 29.799805 3428467515
-9.6700439 -45.77002 29.799805 3428732227
-9.3200684 -45.530029 29.799805 3428074810
-8.1501465 -45.26001 29.799805 3427415849
-19.410034 -46.359985 29.799805 3428535365
-22.02002 -10.02002 29.799805 3426692921
0.31005859 -13.310059 29.799805 3430512004
4.8598633 -26.949951 29.799805 3426758968
4.8598633 -26.430054 29.799805 3426034732
4.5600586 -26.040039 29.799805 3426364208
4.1398926 -25.699951 29.799805 3426891322
3.9699707 -25.25 29.799805 3427154494
-7.3300781 -8.8699951 29.799805 3426035759
-7.7199707 -8.0500488 29.799805 3426627898
-7.9699707 -7.6500244 29.799805 3426693691
-8.2900391 -7.2900391 29.799805 3426101554
-7.630127 -8.5100098 29.80957 3426430519
-7.75 -45.140015 29.80957 3429125439
-7.4001465 -44.859985 29.80957 3429258050
-6.6101074 -44.73999 29.80957 3426561302
-6.2099609 -44.680054 29.80957 3428469556
-8.9399414 -45.329956 29.80957 3425507600
-17.099976 -47.069946 29.80957 3428335929
2.75 -33.640015 29.80957 3427812408
-5.5100098 -43.329956 29.80957 3427285298
5.0200195 -22.400024 29.80957 3430968922
-34.380005 -26.02002 29.80957 3427482163
-34.180054 -26.5 29.80957 3427876408
-21.640015 -45.869995 29.80957 3431100264
-20.849976 -45.959961 29.80957 3426494244
-16.400024 -46.699951 29.819336 3427283499
-16.030029 -46.47998 29.819336 3424717314
-17.969971 -46.839966 29.819336 3428138289
-17.530029 -46.939941 29.819336 3428006961
-8.6101074 -45.040039 29.819336 3425967635
-5.8701172 -44.339966 29.819336 3429982027
-7.0200195 -44.709961 29.819336 3426758168
3.3999023 -32.109985 29.819336 3427217966
-3.6599121 -42.699951 29.819336 3427942464
4.5100098 -27.689941 29.819336 3427614277
-21.210083 -10.329956 29.819336 3426757944
-20.869995 -9.8100586 29.830078 3427020860
-30.099976 -40.030029 29.830078 3427548458
-18.380005 -46.709961 29.830078 3427744300
3.0700684 -33.160034 29.830078 3427022892
-3.2800293 -42.380005 29.830078 3428732748
-4.0700684 -42.609985 29.830078 3427481913
-30.77002 -38.829956 29.830078 3428007481
-20.710083 -45.900024 29.830078 3427152938
-19.630005 -45.780029 29.830078 3425968921
-19.51001 -46.280029 29.830078 3427547953
-19.030029 -46.540039 29.830078 3429258314
-34.200073 -24.140015 29.830078 3427417140
-34.170044 -24.709961 29.830078 3426101537
-33.710083 -24.959961 29.830078 3426823720
-34.070068 -23.47998 29.839844 3428207429
-18.180054 -46.609985 29.839844 3428403520
-19.210083 -46.709961 29.839844 3427547434
-18.800049 -46.699951 29.839844 3427481898
-20.380005 -45.630005 29.839844 3426560801
-19.97998 -45.619995 29.839844 3426692646
-21.540039 -45.839966 29.839844 3428665920
-21.109985 -45.900024 29.839844 3428270905
-5.25 -42.579956 29.839844 3426428962
-4.5100098 -42.369995 29.839844 3426889517
-2.9299316 -42.040039 29.839844 3427745853
-20.460083 -9.4499512 29.839844 3426956094
-19.859985 -9.4000244 29.849609 3427153473
4.8999023 -22.670044 29.849609 3427152924
-4.9299316 -42.23999 29.849609 3427152687
-22 -45.800049 29.849609 3431231073
3.6599121 -31.199951 29.849609 3426955051
4.0100098 -31.050049 29.849609 3426889512
-17.52002 -46.810059 29.849609 3428074555
-16.72998 -46.920044 29.859375 3427021612
-33.190063 -22.27002 29.859375 3427680571
-19.690063 -46.310059 29.859375 3426561309
-5.630127 -43.439941 29.859375 3429916234
-22.48999 -45.650024 29.859375 3429784397
-19.47998 -8.9599609 29.859375 3426694205
2.5200195 -15.859985 29.859375 3432881065
4.0200195 -30.130005 29.859375 3426166326
3.9099121 -29.650024 29.859375 3426429752
3.4599609 -29.349976 29.859375 3428799065
3.4099121 -28.829956 29.859375 3431628164
-10.690063 -7.9799805 29.859375 3426429749
-11.340088 -7.7800293 29.869141 3426364470
4.0800781 -30.630005 29.869141 3427417161
-18.950073 -8.7800293 29.869141 3425840436
-30.700073 -39.219971 29.869141 3427219756
-4.1401367 -42.780029 29.869141 3426625827
-3.7199707 -42.829956 29.869141 3428336446
-31.810059 -38.050049 29.869141 3426955051
-31.390015 -38.069946 29.869141 3427218221
-2.3000488 -41.319946 29.869141 3425969951
-1.9099121 -41.219971 29.869141 3428733256
-33.219971 -21.099976 29.869141 3426890026
-33.140015 -21.640015 29.869141 3427482679
-15.76001 -46.880005 29.869141 3426561061
-15.420044 -47.219971 29.869141 3428864332
-14.97998 -47.560059 29.869141 3431759224
-33.140015 -20.459961 29.879883 3427416372
-3.3901367 -42.47998 29.879883 3428073274
-5.3400879 -42.849976 29.879883 3426559518
-20.950073 -46.040039 29.879883 3427746354
3.2600098 -32.02002 29.879883 3427155246
-2.6899414 -41.099976 29.879883 3424917263
-18.340088 -8.75 29.879883 3426037559
3.7299805 -31.390015 29.879883 3427812422
-12.109985 -7.6400146 29.879883 3426561079
-20.580078 -45.839966 29.889648 3425970972
-20.210083 -45.699951 29.889648 3425706517
-21.75 -45.98999 29.889648 3430246487
-21.340088 -46.069946 29.889648 3427943733
-4.6000977 -42.5 29.889648 3426494497
-13.849976 -47.439941 29.889648 3426298403
-31.960083 -19.069946 29.899414 3428336707
-3.0700684 -41.98999 29.899414 3428402752
-5.0100098 -42.430054 29.899414 3426756899
-22.170044 -45.920044 29.899414 3430706268
3.5600586 -31.339966 29.899414 3426957613
3.9399414 -31.22998 29.899414 3426628902
-17.200073 -8.4899902 29.899414 3426366267
-17.680054 -8.7199707 29.899414 3426432060
-22.599976 -45.780029 29.90918 3426692895
-1.7299805 -40.119995 29.90918 3427088427
-1.3100586 -39.97998 29.90918 3427022379
-24.790039 -44.849976 29.90918 3428600131
-24.369995 -44.839966 29.90918 3427613235
-23.950073 -44.75 29.90918 3427218477
-23.560059 -44.689941 29.90918 3426363420
-23.170044 -44.589966 29.90918 3426560797
-31.77002 -17.790039 29.90918 3426758186
-31.719971 -18.349976 29.90918 3427744826
-12.22998 -47.030029 29.90918 3427219505
-11.619995 -47.25 29.919922 3427811642
-2.3701172 -41.449951 29.919922 3425443094
-1.9799805 -41.280029 29.919922 3427351342
-31.73999 -38.310059 29.919922 3426035746
-31.349976 -38.23999 29.919922 3426824999
-0.94995117 -39.829956 29.919922 3428403516
-32.47998 -36.920044 29.919922 3427020590
4.1699219 -29.530029 29.919922 3427745332
-16.48999 -8.6300049 29.919922 3426431035
3 -33.459961 29.919922 3426035243
3.0800781 -32.859985 29.919922 3428799319
2.6298828 -32.530029 29.919922 3428009803
-14.280029 -8.2199707 29.929688 3426692411
-16.02002 -8.3800049 29.929688 3427087673
-2.8200684 -41.23999 29.929688 3425639959
-25.25 -44.5 29.929688 3428271166
-31.340088 -16.900024 29.929688 3426758186
-0.64013672 -39.290039 29.939453 3428863302
-15.560059 -8.0999756 29.939453 3427153466
-14.960083 -8.0400391 29.939453 3426824253
2.5400391 -34.23999 29.939453 3427745861
-14.960083 -8.0699463 29.949219 3427022138
-32.310059 -37.719971 29.949219 3426364197
-23.210083 -44.849976 29.949219 3424982020
-0.32006836 -38.869995 29.949219 3428468032
-24.830078 -45.01001 29.959961 3427874605
-24.430054 -44.969971 29.959961 3427414570
-24.040039 -44.900024 29.959961 3427414827
-23.650024 -44.810059 29.959961 3426428700
-1.3601074 -40.140015 29.959961 3426167068
-25.75 -44.079956 29.959961 3427350576
-29.670044 -15.140015 29.959961 3428074300
-29.170044 -14.189941 29.969727 3425838107
-1.0100098 -39.829956 29.969727 3427548723
-1.7900391 -40.109985 29.969727 3428075065
4.0700684 -29.72998 29.969727 3427022378
-14.140015 -8.3199463 29.969727 3426693175
1.6298828 -35.280029 29.969727 3429193307
-16.77002 -8.4100342 29.979492 3425509166
-34.090088 -37.219971 29.979492 3426035245
-25.290039 -44.709961 29.979492 3428336183
-0.030029297 -38.25 29.979492 3427217965
4.2900391 -27.839966 29.979492 3427219242
-7.5200195 -45.319946 29.979492 3430838120
-0.70996094 -39.369995 29.989258 3429061964
4.6699219 -27.609985 29.989258 3428140341
-33.219971 -35.540039 29.989258 3426889264
1.2399902 -36.030029 29.989258 3428733526
1.3400879 -36.52002 30 3427681097
-12.920044 -8.2800293 30 3426430776
-13.170044 -8.9000244 30 3426430517
-25.790039 -44.300049 30 3427152425
0.23999023 -37.52002 30 3426363168
0.63989258 -37.430054 30 3428139579
-27.200073 -43.420044 30 3428140607
-26.810059 -43.290039 30 3426429475
-0.38012695 -38.930054 30.009766 3429193550
-26.450073 -43.040039 30.009766 3425903130
1 -37.140015 30.009766 3430113369
-12.590088 -7.8100586 30.009766 3426694204
-12.070068 -7.6600342 30.019531 3426759997
0.77001953 -37.410034 30.019531 3427220548
-18.51001 -8.75 30.019531 3432944288
-33.790039 -34.849976 30.019531 3426823471
-27.73999 -42.97998 30.019531 3428601158
4.9299316 -26.780029 30.019531 3427942962
-0.090087891 -38.290039 30.029297 3426298403
-33.180054 -35.839966 30.029297 3426429481
